-4472  -4470  -4458  -4444  -4430  -4417  -4417  -4428  -4429  -4409  -4371  -4337  -4321  -4309  -4295  -4294  -4294  -4274  -4248  -4231  -4219  -4216  -4218  -4204  -4183  -4158  -4141  -4128  -4115  -4117  -4118  -4116  -4107  -4098  -4093  -4088  -4082  -4080  -4084  -4088  -4088  -4082  -4073  -4064  -4054  -4072  -4074  -4046  -4015  -4000  -4010  -4003  -3986  -3976  -3971  -3964  -3970  -3973  -3956  -3968  -3983  -3967  -3958  -3959  -3964  -3971  -3976  -3984  -3998  -4006  -3997  -3865  -3760  -3628  -3367  -3315  -3448  -3617  -3732  -3769  -3811  -3852  -3870  -3872  -3863  -3852  -3827  -3794  -3675  -3444  -3134  -2772  -2526  -2282  -2042  -1906  -1759  -1595  -1334   -991   -720   -735   -847   -774   -696   -661   -612   -577   -599   -650   -667   -652   -630   -604   -584   -571   -554   -530   -485   -434   -381   -294   -210   -150    -99    -55    -17     64    176    120     88     73     80    118    128    200    260    334    400    280    418    440    610    610    593    547    690   1102    679    792    734    793    805    636    606    591    592    625    716    837    961    670    486    417    359    286    282    190    146     97     96     97     97     96     98     98     99     98     97     97     91     95    102    110    121    123    134    345    680   1013   1449   1686   1514   1363   1078   1230   1620   1522   1396   1388   1439   1351   1616   1482   1142   1295    909    773    751    726    703    685    731    763    804    833    851    881    866    853    840    850    857    867    884    955   1116   1183    802    883    945    968    987    962    982   1021    952    969   1067    959   1026   1189   1078    940   1042   1104    902    884    953    841    727    669    673    633    586    540    479    417    381    382    453    748    778    797    449    656    317    284    290    378    356
-4478  -4472  -4461  -4452  -4440  -4429  -4420  -4414  -4411  -4395  -4376  -4366  -4361  -4349  -4331  -4322  -4316  -4303  -4282  -4260  -4239  -4228  -4219  -4199  -4179  -4161  -4148  -4140  -4134  -4132  -4128  -4131  -4127  -4113  -4104  -4100  -4098  -4091  -4088  -4091  -4090  -4086  -4079  -4072  -4063  -4092  -4090  -4045  -4031  -4037  -4025  -4005  -4005  -3992  -3980  -3984  -3978  -3967  -3970  -3955  -3952  -3965  -3971  -3979  -3981  -3983  -3989  -3988  -3996  -4009  -4005  -3998  -4005  -3937  -3723  -3593  -3425  -3328  -3472  -3613  -3754  -3828  -3868  -3894  -3891  -3884  -3858  -3824  -3782  -3654  -3310  -2983  -2758  -2485  -2227  -2005  -1839  -1673  -1505  -1425  -1267   -887   -815   -916   -752   -612   -561   -544   -559   -603   -641   -646   -629   -610   -595   -579   -567   -550   -514   -465   -408   -335   -256   -187   -135    -91    -56    -36    -14    -14    -14    132     89    132    151    222    306    286    388    275    497    450    531    549    378    488    610    731    958    762    766    844    851    777    669    634    611    600    610    676    795    850    796    558    423    332    276    258    298    179    103     98    102    105    108    101    106    101     98     99     89     98    109    122    131    143    244    706   1172   1445   1415   1263   1310   1614   1265   1166   1217   1444   1280   1377   1300   1538   1816   1535   1122    939    831    801    768    739    722    717    729    761    791    805    804    812    820    814    829    848    859    840    834    853    879    951    764    761    820    874    962   1115    984    930    950    973   1000   1006   1052   1091   1013    847    925    799    712    733    781    858    776    791    810    739    681    603    519    434    367    332    336    362    595    602    428    433    547    289    289    302    320
-4578  -4517  -4506  -4546  -4536  -4523  -4511  -4503  -4495  -4483  -4471  -4461  -4452  -4445  -4434  -4420  -4356  -4345  -4380  -4355  -4334  -4317  -4302  -4285  -4232  -4186  -4171  -4153  -4164  -4184  -4184  -4180  -4151  -4123  -4112  -4106  -4121  -4134  -4131  -4158  -4185  -4181  -4133  -4128  -4162  -4152  -4106  -4063  -4061  -4071  -4075  -4034  -4001  -4016  -4029  -4022  -3998  -3976  -3975  -3978  -3990  -4001  -4006  -4013  -4001  -3992  -4002  -4005  -4051  -4059  -4024  -4072  -4117  -4080  -4039  -4075  -3845  -3693  -3527  -3443  -3733  -3886  -3954  -3975  -3951  -3908  -3891  -3867  -3777  -3679  -3616  -3363  -2897  -2588  -2379  -2142  -1932  -1777  -1671  -1512  -1361  -1199  -1037   -929   -751   -570   -521   -504   -496   -533   -606   -640   -627   -612   -597   -581   -567   -552   -528   -486   -429   -367   -290   -216   -172   -132    -88    -61    -51    -41    -38    -22     25    120    368    280    282    348    273    231    321    579    606    366    516    687    610    488    610    627    654    755    772    836    994    813    673    637    642    631    652    754    874    903    580    462    388    242    175    132    130    124    118    121    126    115    106    102    101    112    106    113    120    135    168    285    400    817    960   1147   1325   1164   1177   1303   1310   1275   1244   1248   1221   1191   1236   1579   1216   1046    971    901    852    815    783    759    731    720    724    877    776    760    766    771    788    818    882    890    849    828    805    790    794    755    722    678    714    721    762   1033    922    812    843    935   1011   1066   1090   1087   1005    780    665    570    579    595    627    696    790    932    917    883    780    645    547    533    401    389    489    334    344    465    536    348    295    289    292    295    403
-4547  -4496  -4484  -4511  -4515  -4506  -4494  -4482  -4473  -4460  -4457  -4460  -4448  -4432  -4413  -4381  -4325  -4306  -4322  -4305  -4278  -4241  -4213  -4205  -4196  -4192  -4180  -4165  -4167  -4172  -4175  -4135  -4110  -4117  -4098  -4089  -4090  -4095  -4103  -4117  -4131  -4119  -4103  -4122  -4155  -4120  -4072  -4072  -4071  -4076  -4080  -4042  -4008  -4019  -4040  -4067  -4037  -3990  -3988  -3983  -3982  -3987  -3992  -3996  -4003  -4009  -4010  -4013  -4019  -4025  -4031  -4038  -4042  -4045  -4048  -4049  -4050  -4042  -3979  -3832  -3725  -3735  -3790  -3850  -3901  -3920  -3906  -3889  -3843  -3797  -3755  -3529  -3119  -2773  -2534  -2307  -2117  -1940  -1796  -1646  -1470  -1331   -681   -472   -752   -596   -513   -482   -479   -503   -567   -624   -624   -595   -575   -578   -571   -553   -528   -492   -447   -389   -318   -245   -182   -145   -113    -82    -65    -53    -38     20     65     57     97    222    200    419    400    280    341    280    359    488    654    366    623    610    544    435    495    569    711    826    931   1217    948    773    706    672    646    656    743    810    859    687    487    315    223    179    180    167    152    156    156    152    139    125    116    132    133    140    150    156    170    235    274    463    813   1105   1204   1193   1366   1533   1503   1786   1529   1394   1377   1486   1312   1392   1140   1019    905    872    838    806    785    759    740    732    710    715    730    731    738    757    754    784    861    885    902    826    811    777    845    694    660    632    625    644    655    648    804    747    819    954   1175   1148   1147   1180    938    715    617    560    523    522    541    586    787    887    855    818    773    675    590    591    526    503    528    349    341    351    320    312    308    299    292    301    310
-4511  -4485  -4470  -4471  -4469  -4458  -4442  -4429  -4417  -4402  -4405  -4416  -4408  -4392  -4373  -4342  -4302  -4285  -4283  -4267  -4245  -4231  -4222  -4209  -4198  -4202  -4201  -4182  -4176  -4179  -4180  -4124  -4081  -4097  -4101  -4107  -4105  -4099  -4099  -4101  -4112  -4119  -4115  -4101  -4087  -4081  -4074  -4080  -4081  -4058  -4045  -4043  -4042  -4054  -4062  -4035  -4010  -3996  -3980  -3973  -3969  -3974  -3988  -4008  -4024  -4031  -4018  -4009  -4021  -4029  -4040  -4051  -4051  -4050  -4054  -4052  -4048  -4054  -4062  -3983  -3864  -3825  -3838  -3890  -3931  -3929  -3923  -3919  -3901  -3863  -3805  -3589  -3176  -2811  -2584  -2444  -2337  -2173  -1963  -1795  -1608  -1418  -1084   -761   -778   -748   -568   -459   -433   -456   -503   -573   -617   -608   -591   -577   -566   -549   -523   -489   -446   -391   -337   -268   -198   -157   -123    -95    -73    -56    -43     -8     40     97    120    110    191    400    280    400    280    400    375    499    366    612    840    737    920    685    503    472    476    556    756    802   1126   1021    851    842    787    731    723    866    743    903    614    316    251    246    251    244    219    216    226    208    205    177    142    163    174    194    198    197    201    222    323    400    462    569    909   1555   2140   1873   2032   2355   2039   1696   1430   1239   1186   1121   1008    904    842    830    814    793    776    787    790    818    741    723    707    710    719    733    738    788    788    813    808    794    803    768    730    682    655    624    615    617    618    624    662    708    797    896   1067   1190   1136   1140    986    785    689    611    541    524    520    551    562    631    663    653    649    629    539    478    511    566    459    365    349    336    322    310    306    298    304    321    336
-4488  -4474  -4462  -4452  -4437  -4418  -4403  -4389  -4379  -4369  -4363  -4358  -4349  -4342  -4336  -4319  -4294  -4278  -4273  -4265  -4251  -4240  -4235  -4231  -4226  -4225  -4218  -4197  -4189  -4195  -4197  -4161  -4127  -4132  -4149  -4160  -4152  -4140  -4136  -4133  -4130  -4127  -4123  -4109  -4101  -4108  -4097  -4084  -4073  -4059  -4057  -4059  -4060  -4064  -4069  -4044  -4020  -4010  -4002  -4001  -3995  -3991  -3994  -4008  -4021  -4028  -4028  -4023  -4030  -4037  -4045  -4054  -4055  -4056  -4057  -4058  -4059  -4059  -4059  -4030  -3986  -3967  -3966  -3978  -3969  -3950  -3951  -3954  -3945  -3876  -3757  -3544  -3144  -2736  -2497  -2422  -2341  -2173  -1999  -1789  -1636  -1501  -1339  -1188  -1013   -812   -651   -526   -435   -434   -469   -531   -591   -604   -590   -576   -566   -551   -528   -496   -452   -401   -348   -279   -211   -168   -131   -100    -80    -60    -47    -22     17     51     85     99     80    160    271    278    185    252    366    362    366    517    556   1012    892   1337    783    682    600    568    531    630    727   1057   1011    821    885    935    849    869    932    800    494    438    461    333    326    358    330    309    344    297    276    301    410    583    276    255    258    248    232    248    309    395    551    861   1225    958   1136   1328   1532   2174   1762   1646   1504   1199   1051   1013    952    891    841    806    793    782    774    804    802    750    726    710    701    700    708    720    723    730    755    769    771    760    758    739    736    738    661    640    620    618    621    619    638    707    740    813    873    912    917    881    956    959    959    790    676    543    539    542    542    570    579    594    574    522    479    716    556    562    552    462    397    335    319    362    331    328    382    461    503
-4486  -4474  -4463  -4448  -4436  -4426  -4411  -4395  -4385  -4379  -4368  -4356  -4346  -4336  -4325  -4311  -4299  -4286  -4274  -4267  -4265  -4257  -4248  -4246  -4243  -4229  -4214  -4204  -4198  -4201  -4202  -4183  -4152  -4149  -4168  -4169  -4160  -4154  -4148  -4147  -4139  -4130  -4126  -4122  -4116  -4114  -4108  -4099  -4091  -4091  -4084  -4090  -4106  -4070  -4039  -4032  -4026  -4019  -4010  -4007  -4002  -3997  -3998  -4006  -4016  -4022  -4017  -4030  -4052  -4049  -4048  -4056  -4061  -4060  -4056  -4056  -4056  -4055  -4058  -4056  -4049  -4029  -4006  -3999  -3980  -3966  -3967  -3967  -3811  -3574  -3424  -3305  -3039  -2698  -2398  -2184  -2208  -2108  -1842  -1683  -1590  -1433  -1336  -1215   -983   -791   -641   -540   -462   -438   -439   -476   -555   -597   -589   -575   -565   -550   -530   -502   -462   -418   -363   -293   -224   -173   -135    -99    -74    -55    -40    -20     24     29     38     49     59     88    132    289    180    607    702    732    427    598    744    732    924    914   1402    853    671    671    626    610    581    600    671    652    707    975   1036    975    975    852    838    801    626    475    488    471    423    462    610    686    762    745    686    486    385    349    332    304    276    307    432    778    955    854   1036   1707   1768   1575   1567   1463   1727   1585   1280   1122   1001    943    919    874    996    789    779    769    762    804    763    772    743    699    684    691    692    708    716    753    767    781    771    763    745    746    748    716    683    676    651    649    640    643    657    658    694    727    931    837    784    775    801    930   1069   1042    696    548    528    523    522    518    518    508    459    449    695    810    734    582    517    515    421    382    342    374    415    500    470    533    769
-4496  -4477  -4471  -4454  -4445  -4435  -4419  -4410  -4402  -4397  -4388  -4372  -4357  -4345  -4333  -4319  -4302  -4288  -4284  -4284  -4279  -4271  -4266  -4259  -4250  -4236  -4221  -4211  -4192  -4183  -4198  -4205  -4202  -4198  -4181  -4174  -4182  -4176  -4160  -4150  -4149  -4147  -4139  -4134  -4128  -4118  -4110  -4103  -4093  -4080  -4074  -4070  -4073  -4067  -4054  -4046  -4042  -4047  -4044  -4037  -4033  -4033  -4032  -4037  -4046  -4048  -3964  -3900  -3987  -4055  -4059  -4060  -4066  -4069  -4045  -3995  -3985  -4046  -4082  -4062  -4046  -4039  -4025  -4008  -3991  -3978  -3978  -3978  -3868  -3586  -3186  -2832  -2467  -2203  -2122  -1982  -1950  -1910  -1778  -1707  -1573  -1378  -1207  -1084  -1008   -836   -637   -533   -477   -460   -461   -475   -506   -558   -579   -577   -568   -558   -534   -494   -468   -430   -367   -299   -232   -181   -146   -116    -84    -58    -26     -2     21     33     39     51     61     72     82    164    412    342    512    519    671    641    610    691    865    914   1036   1524   1204    871    767    753    704    692    642    652    665    675    696    725    757    914    911   1015   1067    660    704    690    830    772    665    838   1044    838   1196    991    510    471    420    364    339    471    838    777   1254   1768   1434   1493   1951   1511   1255   1201   1204   1179   1115   1009    915    878    875    854    815    781    767    765    798    823    746    725    758    684    686    689    695    720    748    970    806    827    841    807    794    772    749    731    691    686    676    664    663    691    655    658    736    723    754    867    786    663    646    662    753    919    689    612    542    548    530    518    510    503    587    607    708    832    924    796    692    651    507    430    356    470    661    746    721    584    675
-4524  -4484  -4467  -4455  -4447  -4446  -4438  -4420  -4399  -4386  -4378  -4365  -4354  -4345  -4333  -4322  -4312  -4300  -4292  -4288  -4286  -4279  -4269  -4261  -4250  -4211  -4176  -4179  -4186  -4185  -4199  -4223  -4231  -4211  -4188  -4185  -4183  -4174  -4162  -4155  -4150  -4148  -4148  -4148  -4142  -4134  -4122  -4114  -4118  -4125  -4124  -4106  -4085  -4072  -4066  -4063  -4063  -4060  -4055  -4050  -4047  -4047  -4049  -4055  -4065  -4067  -4063  -4062  -4064  -4061  -4068  -4074  -4066  -4059  -4042  -4003  -3983  -4021  -4054  -4050  -4045  -4035  -4028  -4024  -4015  -4007  -4003  -4002  -3998  -3841  -3362  -2820  -2462  -2213  -2002  -1785  -1662  -1697  -1702  -1623  -1543  -1446  -1310   -946   -793   -877   -704   -529   -469   -451   -450   -469   -487   -533   -571   -572   -569   -562   -511   -458   -449   -415   -349   -286   -232   -183   -147   -117    -88    -62    -26     -1    214     37     45     61     69     81     95    103    119    244    488    552    898    366    670    495    549    732    853    975   1417   1539   1472   1036    899    792    784    717    716    721    716    734    754    948   1031   1298   1184   1143   1015   1327   1132   1295    928   1295   1400    976   1106    838    965    838    902    933    862    857   1085   1341   1530   1397   1636   1452   1402   1257   1179   1036   1012    991    940    894    855    829    836    808    823    770    841    860    823    776    789    746    700    686    686    684    687    728    829    879    928    860    925    951    931    850    816    729    702    707    695    685    686    673    667    659    656    677    689    638    653    707    614    573    572    584    566    554    536    528    533    522    522    625    683    665    801    961    795    798    764    755    584    743    448    777   1028    813    931    650    737
-4573  -4515  -4479  -4484  -4481  -4489  -4494  -4478  -4430  -4402  -4410  -4411  -4403  -4391  -4366  -4337  -4318  -4316  -4313  -4300  -4296  -4290  -4276  -4271  -4273  -4229  -4180  -4183  -4192  -4194  -4207  -4223  -4224  -4215  -4207  -4202  -4185  -4163  -4158  -4161  -4162  -4160  -4159  -4154  -4151  -4156  -4153  -4149  -4174  -4201  -4198  -4153  -4102  -4081  -4073  -4066  -4068  -4071  -4065  -4057  -4055  -4057  -4059  -4075  -4099  -4102  -4087  -4079  -4074  -4068  -4075  -4078  -4067  -4050  -4033  -4006  -3983  -3999  -4035  -4049  -4046  -4042  -4033  -4023  -4024  -4028  -4021  -4013  -4022  -4028  -3852  -3469  -3089  -2765  -2370  -1971  -1744  -1624  -1538  -1489  -1461  -1399  -1310  -1201  -1046   -863   -696   -562   -478   -444   -443   -456   -455   -503   -558   -565   -567   -559   -515   -447   -423   -410   -348   -283   -232   -188   -150   -115    -89    -66    -36    -10    360    248     97     60     79    125    180    158    135    162    305    427    366    366    366    735    667    932    610    812    838   1266   1311   1585   1097   1048    853    853    817    817    801    817    787    853    929   1064   1291   1295   1244   1295   1625   1930   1676   1483   1727   1558   1644   1589   1524   1395   1177   1295   1166   1143    991   1219   1282   1251   1219   1207   1158   1082   1063   1043    951    867    838    807    790    877    761    753    906    762    747    747    767    792    738    707    691    689    687    689    709    747    786    849    919    892    858    865    875    910    875    797    747    728    734    722    852    704    687    666    675    675    700    690    613    587    644    576    564    563    557    549    544    534    531    527    527    545    606    646    738    971   1069   1158   1016    738    628    515    488    710    693    811    768    704    827
-4563  -4520  -4504  -4538  -4528  -4520  -4513  -4504  -4448  -4434  -4469  -4461  -4450  -4438  -4393  -4346  -4331  -4355  -4347  -4339  -4367  -4357  -4348  -4347  -4271  -4165  -4152  -4220  -4273  -4285  -4297  -4297  -4295  -4298  -4298  -4296  -4266  -4231  -4229  -4199  -4168  -4168  -4179  -4166  -4167  -4179  -4159  -4145  -4156  -4159  -4136  -4115  -4095  -4088  -4084  -4078  -4076  -4076  -4075  -4072  -4070  -4069  -4068  -4075  -4085  -4085  -4077  -4078  -4082  -4080  -4087  -4088  -4084  -4082  -4055  -4011  -3996  -4000  -4022  -4077  -4078  -4045  -4036  -4057  -4088  -4093  -4063  -4030  -4035  -4041  -4041  -4002  -3880  -3602  -3096  -2424  -1855  -1524  -1393  -1343  -1286  -1269  -1210  -1124  -1064   -951   -775   -634   -539   -493   -483   -461   -435   -452   -517   -554   -559   -557   -533   -487   -439   -396   -342   -282   -232   -191   -155   -119    -91    -69    -48    -29    -10    126    122    244    122    171    191    270    226    192    150    170    282    427    446    464    366    488    775    526    558    731    914   1426   1280   1239   1030   1039    975    983    915    975    914    843   1075   1295   1250   1314   1431   1391   1524   1981   1729   1600   1605   1905   1905   1984   1905   1600   1530   1130   1307   1118   1491   1341   1128   1011    994    996    991    943    926    895    830    818    799    774    754    738    727    723    712    703    696    692    692    701    696    702    692    690    687    691    732    765    801    856    910    901    894    860    854    827    830    816    852    809    742    734    792    727    678    714    703    727    923    812    743    719    682    645    613    569    554    552    544    538    532    529    524    546    669    577    644    761    987   1093    898    644    508    412    375    446    546    676    951    874    772
-4486  -4472  -4461  -4455  -4443  -4434  -4426  -4416  -4407  -4400  -4394  -4382  -4368  -4356  -4346  -4337  -4328  -4324  -4317  -4309  -4302  -4293  -4295  -4299  -4292  -4242  -4193  -4193  -4226  -4251  -4246  -4242  -4242  -4241  -4238  -4232  -4226  -4087  -3922  -4039  -4181  -4176  -4169  -4170  -4191  -4202  -4227  -4216  -4150  -4121  -4119  -4121  -4111  -4090  -4079  -4067  -4069  -4084  -4085  -4083  -4078  -4069  -4062  -4072  -4085  -4084  -4077  -4080  -4087  -4084  -4086  -4088  -4086  -4088  -4059  -3999  -3973  -3990  -4016  -4037  -4044  -4042  -4037  -4035  -4034  -4035  -4034  -4049  -4069  -4067  -4051  -4043  -4025  -3778  -3245  -2565  -1917  -1516  -1329  -1216  -1147  -1099   -924   -419   -263   -618   -821   -752   -581   -521   -499   -478   -458   -455   -499   -548   -558   -557   -537   -491   -434   -388   -339   -282   -234   -193   -156   -120    -93    -73    -52    -32    -12    155    184    244    163    222    302    272    309    197    305    236    366    481    610    610    732    585    610    975    833    671    671    792   1121   1463   1431   1158   1136   1438   1105    966   1039    941    930   1067   1143   1372   1291   1494   1649   2121   2592   2496   2438   1981   1692   1717   1657   1524   1329   1178   1257   1362   1230   1053    948    920    911    893    885    866    841    826    806    794    782    768    754    739    729    721    712    702    692    692    692    694    692    704    703    702    700    723    761    837    837    864    921    945    954    922    836    823    811    808    808    835    772    745    738    704    701    751    810    779    776    839    890    890    842    889    830    794    728    709    727    815    525    521    516    520    532    539    572    631    680    743    772    684    562    472    392    409    472    560    712    742    757
-4537  -4497  -4460  -4439  -4425  -4416  -4404  -4397  -4404  -4403  -4393  -4384  -4376  -4362  -4345  -4333  -4327  -4323  -4313  -4301  -4291  -4286  -4303  -4332  -4336  -4292  -4238  -4217  -4235  -4256  -4251  -4247  -4247  -4244  -4229  -4197  -4192  -4151  -4077  -4115  -4182  -4256  -4273  -4225  -4227  -4241  -4261  -4222  -4153  -4135  -4136  -4133  -4121  -4095  -4074  -4078  -4086  -4087  -4090  -4087  -4081  -4070  -4063  -4071  -4081  -4085  -4081  -4083  -4080  -4067  -4061  -4064  -4061  -4050  -4021  -3979  -3963  -3982  -4007  -4026  -4030  -4033  -4041  -4040  -4036  -4031  -4032  -4046  -4056  -4050  -4046  -4043  -4024  -3906  -3637  -3134  -2440  -1739  -1299  -1115  -1018   -986   -979   -574   -286   -545   -713   -692   -589   -519   -495   -509   -498   -467   -455   -505   -556   -548   -527   -485   -445   -403   -345   -286   -235   -186   -137   -108    -94    -78    -57    -33    -11     50     75    118    179    141    244    230    241    261    366    304    344    366    512    488    732   1069    732    695    934    853    902    914    880   1280   1373   1524   1559   1321   1097   1140   1483   1219    983   1067   1219   1295   1347   1523   1475   1724   2134   2209   1981   1828   1683   1829   2210   2121   1880   1350   1287   1067   1219   1056   1006    945    926    917    908    869    847    842    829    804    783    769    754    742    730    720    711    702    696    701    701    704    714    718    719    714    779    846    910    866    853    901    886    901    886    870    859    834    820    802    821    779    730    711    736    770    803    789    800    871    917    826    897   1022   1013   1168   1036   1132   1207   1155   1182    851    651    548    543    568    552    537    590    606    619    662    793   1041    719    676    453    404    461    625    715    795    897
-4546  -4500  -4466  -4450  -4438  -4432  -4424  -4416  -4414  -4413  -4406  -4400  -4393  -4381  -4364  -4345  -4335  -4331  -4322  -4311  -4304  -4302  -4320  -4348  -4346  -4306  -4261  -4235  -4233  -4245  -4250  -4250  -4256  -4260  -4250  -4143  -4117  -4199  -4206  -4201  -4212  -4239  -4240  -4241  -4256  -4258  -4249  -4204  -4161  -4148  -4144  -4134  -4124  -4098  -4070  -4082  -4099  -4096  -4095  -4093  -4091  -4081  -4074  -4085  -4097  -4096  -4090  -4085  -4070  -4048  -4035  -4051  -4057  -4029  -3988  -3929  -3904  -3939  -3991  -4019  -4015  -4024  -4042  -4041  -4033  -4027  -4014  -4012  -4025  -4030  -4030  -4030  -4019  -3987  -3925  -3613  -3011  -2279  -1572  -1175   -987   -886   -910   -735   -584   -684   -706   -677   -624   -554   -534   -544   -554   -537   -496   -510   -547   -553   -541   -507   -469   -415   -355   -296   -236   -184   -133   -100    -86    -73    -59    -24     87    125    159    199    244    164    151    174    163    202    225    251    305    366    377    415    538    610   1254    834    833    914   1175   1097    975    956    998   1463   1280   1585   1321   1539   1524   1572   1359   1005   1109   1295   1391   1442   1412   1676   1672   1748   1624   1628   1554   1862   1875   1814   1457   1181   1067   1030   1067   1280   1253   1082   1128   1067   1036    975    901    893    855    837    853    784    755    734    722    712    706    701    705    709    711    714    722    725    727    743    872    983    933    921    941    896    896    918    985   1007    944    871    826    812    842    741    734    779    765    791    900    904    893    999    879    864    895    949   1010   1076   1102   1273   1243   1255   1177    974    978    842    840    780    679    642    584    600    648    642    695    683    645    587    465    445    475    592    905    685    814
-4510  -4484  -4470  -4461  -4455  -4448  -4441  -4427  -4417  -4416  -4412  -4404  -4393  -4386  -4376  -4359  -4344  -4338  -4329  -4318  -4311  -4311  -4318  -4323  -4315  -4294  -4270  -4251  -4247  -4250  -4254  -4251  -4257  -4260  -4209  -4055  -4066  -4212  -4228  -4216  -4237  -4306  -4329  -4297  -4284  -4285  -4296  -4260  -4191  -4157  -4144  -4128  -4119  -4101  -4071  -4081  -4103  -4103  -4103  -4102  -4101  -4092  -4086  -4099  -4111  -4096  -4080  -4080  -4062  -4039  -4033  -4046  -4038  -4008  -3968  -3896  -3859  -3884  -3935  -3979  -3993  -4010  -4034  -4040  -4037  -4021  -3987  -3961  -3937  -3946  -3992  -4016  -4016  -3996  -3942  -3759  -3395  -2872  -2240  -1742  -1304   -949   -879   -732   -684   -849   -887   -800   -675   -603   -580   -578   -586   -590   -568   -521   -528   -563   -563   -540   -496   -443   -380   -313   -247   -189   -137   -102    -84    -70    -56    -34    -10    130    124     95    148    171    366    366    492    366    366    309    294    300    366    488    444    597   1050   1303    840   1097   1521   1756   1742   1707   1634   1585   1463   1585   1341   1433   1524   1524   1524   1140   1046   1143   1219   1295   1310   1524   1612   1753   1615   1676   1718   1421   1719   1382   1358   1143   1046    954    991   1046   1129   1566   1693   1512   1204   1219   1097   1097   1030    890    819    785    756    738    722    712    706    707    715    720    723    727    727    737    741    749    801    930    923    898    915    905    883    957   1086   1045    971    904    844    802    796    757    816    919    954    835   1010   1024   1021    986    946    943    951   1017   1057   1136   1225   1342   1164   1217   1196   1242   1146   1201   1211    997    897    803    723    624    643    601    623    656    638    584    550    568    549    587    587    612    663
-4490  -4480  -4476  -4472  -4465  -4452  -4441  -4430  -4418  -4414  -4405  -4392  -4382  -4375  -4368  -4360  -4354  -4348  -4340  -4331  -4326  -4326  -4325  -4316  -4290  -4275  -4278  -4276  -4271  -4261  -4251  -4253  -4254  -4236  -4169  -4036  -4105  -4252  -4235  -4221  -4231  -4295  -4328  -4287  -4270  -4269  -4280  -4246  -4176  -4148  -4139  -4130  -4134  -4119  -4082  -4088  -4107  -4111  -4117  -4118  -4118  -4119  -4115  -4116  -4125  -4100  -4071  -4068  -4057  -4045  -4041  -4036  -3997  -3969  -3943  -3887  -3857  -3854  -3860  -3875  -3879  -3908  -3966  -4003  -4020  -3990  -3952  -3926  -3861  -3859  -3943  -3985  -3982  -3973  -3955  -3908  -3832  -3605  -3181  -2779  -2048  -1262  -1014   -991  -1057  -1160  -1191  -1046   -829   -731   -668   -643   -652   -659   -643   -568   -565   -600   -600   -592   -548   -478   -414   -345   -272   -210   -153   -111    -88    -72    -55    -41    -18     12     43     28     91     89    112    258    287    268    488    400    328    251    275    360    376    356    488    607    719    853   1243   1585   1097   1132   1097   1494   1727   1646   1463   1402   1158   1448   1349   1270   1295   1135   1182   1245   1360   1358   1483   1772   1748   1616   1524   1402   1802   1782   1295   1372    935    991    799   1012   1143    914   1095   1341   1585   1509   1304   1207   1097   1112    930    819    774    734    720    719    719    724    735    735    740    742    750    754    756    763    767    818    907    868    900    904    898    878    939   1044   1020    916    834    815    828    761    855    995   1020    961   1065   1019   1060   1144   1399   1190   1053   1154   1207   1237   1282   1790   1423   1234   1215   1345   1388   1392   1400   1103   1102   1064    921    800    745    559    564    669    747    792    742    756    769    662    692    539    563
-4490  -4482  -4473  -4465  -4459  -4451  -4439  -4428  -4418  -4410  -4404  -4398  -4390  -4381  -4374  -4369  -4364  -4362  -4362  -4359  -4355  -4351  -4350  -4338  -4284  -4273  -4309  -4315  -4305  -4278  -4255  -4259  -4276  -4283  -4252  -4113  -4153  -4279  -4245  -4232  -4237  -4246  -4245  -4235  -4244  -4253  -4305  -4266  -4160  -4154  -4155  -4140  -4131  -4111  -4080  -4090  -4104  -4107  -4116  -4118  -4125  -4136  -4126  -4111  -4116  -4115  -4105  -4084  -4050  -4027  -4023  -4021  -3978  -3931  -3880  -3854  -3868  -3864  -3826  -3822  -3851  -3870  -3914  -3953  -3949  -3919  -3898  -3853  -3848  -3922  -3972  -3980  -3986  -3978  -3951  -3924  -3891  -3849  -3677  -3320  -2678  -1934  -1434  -1142  -1089  -1200  -1270  -1136   -939   -847   -759   -583   -250   -368   -684   -657   -658   -687   -670   -631   -620   -555   -469   -398   -315   -241   -175   -132   -100    -74    -57    -16    119     71     17     23     27     72    229    146    170    178    220    244    183    244    233    241    251    308    464    334    359    488    597    975    858    897   1280   1402   1097   1203   1096   1097   1158   1295   1286   1372   1600   1614   1863   1560   1829   1753   1728   1600   1522   1524   1699   1600   1797   1981   1691   1830   1295   1183    869    860    914    794   1020   1056    975   1158   1036    882   1097   1158   1074   1078   1013    844    768    756    761    762    763    751    753    757    766    775    777    780    824    792    815    836    856    894    889    863    860    909    958    934    853    836    845    776    903   1127   1084    971   1052   1056   1045   1124   1105   1000   1020   1273   1421   1430   1266   1358   1301   1430   1160   1240   1515   1609   1257   1166   1141   1207   1039   1243    846    568    584    634    733    875    794    612    528    544    458    456    465
-4510  -4479  -4463  -4455  -4449  -4450  -4448  -4436  -4425  -4421  -4419  -4410  -4396  -4389  -4390  -4390  -4385  -4377  -4371  -4374  -4377  -4374  -4369  -4358  -4336  -4325  -4327  -4326  -4328  -4313  -4295  -4288  -4298  -4306  -4294  -4260  -4257  -4288  -4301  -4311  -4327  -4332  -4321  -4297  -4289  -4280  -4289  -4229  -4143  -4152  -4153  -4135  -4110  -4094  -4081  -4078  -4070  -4075  -4100  -4111  -4123  -4137  -4139  -4136  -4141  -4140  -4114  -4088  -4069  -4046  -4025  -3997  -3949  -3842  -3790  -3830  -3846  -3817  -3784  -3783  -3804  -3847  -3881  -3908  -3921  -3915  -3884  -3849  -3871  -3881  -3884  -3906  -3931  -3938  -3915  -3890  -3872  -3856  -3788  -3613  -3205  -2595  -1930  -1398  -1197  -1236  -1271  -1194  -1087  -1021   -991   -919   -851   -840   -813   -764   -729   -730   -754   -734   -658   -592   -532   -458   -376   -300   -267   -196   -108    -78    -49    -16    171    323    366    244    122     70     83     85     69     97    108     96    124    169    193    190    229    244    244    357    424    325    488    732    752    896   1153    975   1097    975   1004    914   1219   1219   1524   1524   1448   1372   1513   1753   1829   1910   1829   1956   1676   1600   1494   1585   1676   1372   1566   1382   1380    873    680    711    853    975    732    853    914    792   1097   1036   1006    879   1126   1219   1024    951   1082    855    807    804    788    771    770    773    786    796    819    829    817    817    823    842    858    878    880    880    876    871    907    847    848    856    861    786    936   1101    973    932    967   1022   1123   1191   1413   1075    964   1024   1167   1155   1173   1250   1271   1116   1141   1274   1145   1110   1147   1180   1055    951   1179    912    765    665    677    730    759    900    826    603    444    372    359    357    370
-4571  -4507  -4468  -4458  -4449  -4444  -4445  -4440  -4445  -4458  -4459  -4433  -4407  -4411  -4428  -4437  -4429  -4406  -4389  -4407  -4438  -4444  -4420  -4407  -4399  -4373  -4335  -4304  -4328  -4356  -4359  -4354  -4353  -4348  -4332  -4316  -4293  -4285  -4274  -4268  -4298  -4308  -4289  -4281  -4278  -4222  -4178  -4213  -4212  -4186  -4178  -4160  -4142  -4126  -4109  -4100  -4080  -4081  -4110  -4128  -4153  -4170  -4162  -4153  -4161  -4167  -4140  -4117  -4098  -4077  -4064  -4024  -3948  -3756  -3694  -3792  -3836  -3807  -3761  -3764  -3798  -3839  -3832  -3870  -3905  -3893  -3864  -3816  -3778  -3726  -3693  -3723  -3772  -3809  -3851  -3870  -3854  -3825  -3791  -3776  -3535  -2988  -2365  -1820  -1492  -1466  -1602  -1662  -1526  -1317  -1181  -1071  -1004   -961   -911   -853   -808   -799   -798   -793   -736   -647   -586   -536   -457   -368   -351   -257   -126    -90    -45     -8    459    358    358    357    252    122    122    312    488    239    218    488    366    175    122    135    169    210    225    228    229    299    366    425    488    762    980    804    862    610    855    937   1282   1524   1604   1524   1676   1448   1499   1265   1219   1219   1196   1200   1347   1219   1372   1219    914    914    922   1067   1143   1029    648    792   1003    880    477    671   1051    680   1097    864    687    892    908    958   1080   1132   1182   1000    852    847    807    791    794    800    786    799    814    825    838    848    859    876    894    903    911    909    905    904    895    882    874    876    880    847    924    889    905   1154    929   1091   1048   1013   1204   1076   1010    931   1005   1034   1053   1306   1025   1051   1119   1203   1112   1091    999    979    881    863    901   1187    869   1207    973    981    864    834    782    689    451    398    343    290    276
-4579  -4565  -4510  -4480  -4466  -4460  -4474  -4501  -4518  -4521  -4517  -4466  -4450  -4484  -4491  -4493  -4489  -4477  -4467  -4472  -4483  -4485  -4477  -4471  -4459  -4437  -4397  -4365  -4387  -4405  -4407  -4414  -4410  -4401  -4374  -4351  -4321  -4311  -4321  -4314  -4310  -4322  -4347  -4357  -4349  -4262  -4206  -4284  -4301  -4235  -4209  -4202  -4199  -4190  -4170  -4158  -4140  -4127  -4139  -4161  -4198  -4225  -4185  -4187  -4238  -4235  -4203  -4174  -4144  -4135  -4139  -4102  -4034  -3955  -3871  -3824  -3900  -3911  -3858  -3862  -3891  -3905  -3860  -3837  -3891  -3905  -3854  -3811  -3767  -3727  -3730  -3753  -3739  -3759  -3820  -3834  -3807  -3778  -3756  -3704  -3559  -3093  -2306  -1896  -1720  -1584  -1712  -1787  -1729  -1600  -1431  -1297  -1209  -1095   -991   -948   -941   -920   -899   -882   -824   -730   -646   -584   -517   -443   -374   -272   -167   -119    -92    -55    -17    100    290    452    434    176    317    222    397    366    366    242    244    355    223    363    488    523    536    436    313    279    264    310    411    765    659    620    521    671    762    722    914   1450   1423   1448   1448   1067   1372   1318   1219   1099   1063   1108   1121   1063   1067   1295   1486    711   1174   1372    991    583    668    544    549    869    633    488    488    549    553    732   1085    865   1158   1158   1003   1106   1261   1499   1036    954    858    849    825    836    827    835    848    858    872    876    887    902    933    926    939    956    956    951    943    927    911    908    897    867    882    934    913    901    889    932    974    966   1184   1265   1075    883    903    938    962   1002   1020   1008   1155   1053    996    962    924    863    857    820    842    882    993   1060   1335   1200   1148    891    795    683    560    501    415    343    273
-4515  -4512  -4502  -4493  -4484  -4475  -4470  -4468  -4462  -4455  -4448  -4436  -4430  -4431  -4428  -4425  -4423  -4419  -4417  -4417  -4414  -4409  -4400  -4394  -4390  -4379  -4341  -4325  -4338  -4343  -4346  -4345  -4338  -4333  -4320  -4307  -4307  -4290  -4273  -4279  -4283  -4299  -4323  -4324  -4299  -4238  -4212  -4237  -4237  -4227  -4223  -4209  -4185  -4164  -4155  -4151  -4150  -4163  -4165  -4147  -4150  -4147  -4122  -4157  -4217  -4225  -4204  -4178  -4173  -4177  -4175  -4149  -4079  -4007  -3946  -3937  -3963  -3954  -3983  -4124  -4132  -3977  -3877  -3847  -3877  -3866  -3826  -3792  -3765  -3824  -3837  -3759  -3745  -3758  -3769  -3817  -3838  -3775  -3711  -3512  -3478  -3540  -3213  -2541  -2032  -1941  -1936  -1918  -1880  -1823  -1720  -1575  -1386  -1249  -1040   -728   -789   -991   -992   -974   -894   -830   -750   -606   -553   -530   -466   -401   -287   -168   -108    -86    -73    -59    -47    -21    160    278    357    350    207    317    176    140    575    730    640    450    387    610    881    653    853    732    744    607    968    759    628    533    667    569    550    904    923   1086   1545    724    597    939   1050    708    991   1295   1498   1219   1524   1829   1481   1325    961    732   1116   1037   1219   1067    553    427    618    610    533    436    628    488    671    730    622    686    805    749    817    939   1049   1036   1083   1154   1056    975    966    956    890    905    902    924    934    948    962    977    975    991    989    999   1006    996    983    964    952    946    931    916    902    848    867    935    895    892    948   1433   1082   1148    889    880    876    892    918    944    986   1028   1155   1023    919    903    928   1000    856    983    959    846    964    994    922   1076   1109   1064   1050    980    726    604    529    461    355
-4524  -4519  -4555  -4566  -4523  -4501  -4502  -4532  -4532  -4484  -4452  -4441  -4430  -4425  -4425  -4419  -4410  -4402  -4393  -4400  -4399  -4382  -4384  -4380  -4356  -4318  -4264  -4224  -4212  -4223  -4247  -4276  -4306  -4315  -4309  -4310  -4331  -4320  -4319  -4405  -4440  -4397  -4362  -4312  -4260  -4232  -4283  -4336  -4357  -4362  -4290  -4215  -4173  -4144  -4126  -4125  -4128  -4142  -4131  -4103  -4119  -4146  -4129  -4141  -4181  -4183  -4166  -4141  -4161  -4187  -4178  -4161  -4077  -3973  -3931  -3937  -3993  -4008  -3942  -3871  -3844  -3838  -3802  -3840  -3909  -3925  -3941  -3941  -3942  -3943  -3934  -3890  -3806  -3696  -3692  -3758  -3751  -3735  -3713  -3673  -3627  -3532  -3325  -2885  -2415  -2158  -2074  -2080  -2056  -1973  -1866  -1793  -1722  -1666  -1438  -1197  -1161  -1055   -992  -1019  -1003   -923   -833   -756   -669   -602   -534   -458   -436   -335   -176   -114    -96    -86    -72     -2    221    244    183    183     94    122    146    233    281    244     46    142    152    122    183    198    227    336    366    244    336    488    889    914    914    953    762    715    667    832   1098   1067   1088    955    549    569    914    641    816   1250   1172   1524   1237   1445   1161    653    744    854   1052    749    488    322    427    564    516    366    427    427    511    549    546    671    656    792    768    815    975    896    911    925   1000   1261   1328   1097   1102   1052   1052   1032   1004   1047   1077   1095   1072   1080   1060   1081   1083   1058   1045   1032   1007    990    974    952    916    892    843    914    907    906    936   1157   1151    918    862    875    879    883    915   1070   1021    965    910    995   1002    853    831    942    958    812    797    772    746    995    823    880    947    984    981    927    896    731    678    623    590
-4535  -4518  -4518  -4531  -4537  -4519  -4503  -4514  -4536  -4554  -4539  -4483  -4441  -4435  -4433  -4429  -4424  -4418  -4378  -4333  -4323  -4358  -4414  -4434  -4401  -4331  -4251  -4179  -4133  -4128  -4154  -4204  -4270  -4323  -4338  -4335  -4341  -4331  -4350  -4431  -4466  -4424  -4386  -4346  -4312  -4314  -4333  -4328  -4313  -4297  -4237  -4176  -4149  -4135  -4137  -4145  -4138  -4138  -4137  -4130  -4157  -4191  -4162  -4142  -4173  -4192  -4189  -4179  -4186  -4193  -4193  -4185  -4134  -4041  -3974  -4016  -4078  -4087  -4059  -3997  -3951  -3922  -3892  -3914  -3970  -3984  -3978  -3970  -3970  -3977  -3964  -3924  -3752  -3658  -3741  -3772  -3765  -3772  -3745  -3685  -3586  -3333  -3084  -2877  -2708  -2560  -2418  -2391  -2306  -2142  -2026  -1975  -1912  -1815  -1762  -1662  -1530   -962   -657   -993  -1154  -1124   -967   -839   -747   -675   -621   -574   -519   -461   -359   -227   -148   -121   -100    -84    -40     -1     -8    -21    -30    -35    -35    -35    -37    -34    -25    -20    -21    -16      5     61     57    109     38     28     91     91    169    161    194    229    335    469    623    671    732    766    732    427    381    224    239    247    316    606    657    671    684   1099    854    651    419    671    777    671    616    366    518    457    406    313    396    384    427    488    610    549    603    650    732    732    758    933    975    926   1166   1341   1219   1069   1353   1280   1302   1194   1118   1239   1359   1281   1312   1216   1173   1191   1177   1142   1125   1111   1069   1054   1023    997    952    921    863    923    919    951    953    943    904    896    928    888    890    901    904    921    942   1018    892    867    888    885    823    999    826    946    940    689    687    703   1215    829    826    819    854    935    908    910    856    602    554
-4545  -4525  -4528  -4562  -4591  -4575  -4541  -4510  -4495  -4509  -4520  -4503  -4472  -4454  -4448  -4442  -4428  -4422  -4355  -4262  -4249  -4340  -4446  -4467  -4445  -4360  -4239  -4130  -4048  -4015  -4036  -4099  -4195  -4296  -4336  -4343  -4346  -4336  -4347  -4385  -4404  -4388  -4381  -4374  -4358  -4366  -4374  -4339  -4289  -4261  -4244  -4213  -4181  -4171  -4189  -4204  -4182  -4166  -4165  -4151  -4165  -4203  -4182  -4145  -4156  -4171  -4177  -4188  -4189  -4202  -4208  -4196  -4162  -4071  -3980  -4004  -4101  -4138  -4128  -4100  -4055  -4004  -3960  -3970  -4012  -4015  -4015  -4004  -3978  -3972  -3951  -3891  -3826  -3815  -3830  -3800  -3758  -3722  -3693  -3692  -3710  -3683  -3662  -3621  -3415  -3046  -2677  -2501  -2421  -2347  -2268  -2151  -2045  -1948  -1874  -1761  -1559  -1388   -948   -559   -719   -936   -954   -888   -812   -735   -678   -638   -594   -542   -456   -344   -273   -233   -181   -134    -85    -48    -59    -97   -127   -134   -133   -140   -147   -135   -103    -74    -89   -102    -47    -21     -9     12     14      1     30    152     21      4      1     -1     21     21     59    244    305    570    305    244    244    273    275    366    671    677    610    252    521    610    434    244    313    305    594    336    305    335    403    409    293    377    366    348    383    425    447    512    638    914   1036    853    853    980    975   1131   1188   1341   1585   1341   1390   1650   1750   1392   1377   1565   1598   1624   1535   1506   1431   1360   1293   1252   1226   1178   1132   1108   1091   1040    994    957    905    880   1010   1179   1097   1107   1034    960    982    968    971    961    970    972    987    965    932    920    886    864    847    855    797    850   1022    786    695    710    873    979    892    794    686    867    869    745    712    659    540
-4550  -4526  -4526  -4546  -4570  -4589  -4592  -4534  -4478  -4477  -4479  -4481  -4479  -4474  -4471  -4452  -4368  -4282  -4295  -4358  -4391  -4412  -4432  -4434  -4425  -4315  -4159  -4015  -3869  -3812  -3846  -3941  -4101  -4274  -4347  -4355  -4355  -4347  -4350  -4346  -4342  -4368  -4389  -4384  -4389  -4414  -4445  -4424  -4366  -4338  -4306  -4270  -4251  -4242  -4252  -4257  -4224  -4207  -4225  -4220  -4209  -4208  -4186  -4157  -4159  -4179  -4187  -4189  -4176  -4189  -4211  -4193  -4140  -4079  -4021  -4033  -4126  -4168  -4160  -4129  -4076  -4022  -3987  -3999  -4030  -4042  -4046  -4020  -3981  -3973  -3961  -3875  -3848  -3888  -3891  -3860  -3782  -3704  -3647  -3644  -3683  -3714  -3725  -3679  -3549  -3330  -2961  -2685  -2597  -2475  -2423  -2340  -2139  -2022  -1958  -1860  -1712  -1597  -1269   -489   -281   -767   -993   -965   -864   -765   -705   -668   -621   -570   -507   -443   -405   -361   -280   -225   -209   -197   -185   -183   -195   -199   -197   -188   -138   -132   -180   -238   -300   -312   -292   -276   -200    -98    -32    -55    -11    -15     -1    -47    -37    -79   -132   -161    -72     61    244    366    315    157    191    309    305    427    347    281    244    193    321    198    146    110    128    145    177    232    305    488    305    358    427    488    427    379    396    505    610    554    792   1097   1341   1280   1341   1417   1917   1585   1585   1554   1978   1707   1670   1835   2109   2342   1819   2013   1745   2249   2032   2287   2001   1559   1436   1461   1343   1289   1235   1189   1128   1087   1036   1002    882    999   1350   1276   1342   1631   1646   1306   1260   1191   1124   1097   1121   1114   1093   1048   1052    959    941    887    878    881    890    846    791    772    739    737    746    851    802    799    693    590    743    858    743    997    686
-4550  -4528  -4523  -4527  -4538  -4557  -4583  -4541  -4477  -4472  -4490  -4534  -4567  -4534  -4487  -4471  -4310  -4072  -4222  -4452  -4452  -4449  -4445  -4435  -4428  -4183  -3930  -3767  -3529  -3471  -3563  -3699  -3961  -4253  -4352  -4352  -4355  -4355  -4360  -4345  -4307  -4342  -4394  -4394  -4403  -4427  -4467  -4448  -4385  -4359  -4356  -4327  -4287  -4251  -4244  -4263  -4251  -4242  -4251  -4275  -4266  -4223  -4187  -4161  -4174  -4192  -4185  -4179  -4161  -4158  -4187  -4164  -4099  -4084  -4072  -4062  -4126  -4178  -4163  -4127  -4092  -4042  -3982  -3961  -3974  -3997  -4003  -3958  -3955  -3973  -3919  -3848  -3819  -3841  -3868  -3851  -3791  -3724  -3677  -3659  -3668  -3705  -3726  -3675  -3633  -3625  -3285  -2840  -2648  -2518  -2403  -2218  -2037  -1981  -1963  -1920  -1828  -1696  -1490  -1295   -633   -554  -1068  -1008   -903   -797   -733   -702   -664   -614   -559   -494   -444   -410   -374   -351   -338   -325   -277   -248   -279   -296   -299   -287   -260   -278   -339   -426   -496   -491   -454   -432   -409   -380   -297   -229   -199   -140    -92    -59    -79   -148   -224   -255   -172    -63    -63    -47    427    488    274    152    183    446    274    183    183     85     77    183    121    278    244    568    474    549    637    579    732    702    884    945    615    457    548    712    845   1050    610    914   1286   1415   1548   1506   1463   1292   1262   1463   1341   1873   1883   1892   2133   2096   2131   2243   2075   2016   1825   2336   2175   1825   1890   1313   1174   1184   1311   1227   1097   1112   1047    966    925   1208   1296   1451   1639   1794   1822   2350   1859   1711   1535   1559   1421   1725   1391   1180   1135   1084    993    960    963    995   1014    967    886    810    825    772    761    760    737    659    610    571    645   1000    802   1023   1014
-4533  -4524  -4519  -4514  -4508  -4503  -4498  -4498  -4502  -4503  -4497  -4489  -4484  -4487  -4487  -4481  -4477  -4471  -4468  -4468  -4460  -4451  -4441  -4440  -4108  -3625  -3529  -3466  -3256  -3190  -3318  -3433  -3804  -4258  -4364  -4371  -4368  -4369  -4374  -4358  -4284  -4304  -4397  -4414  -4415  -4422  -4429  -4412  -4378  -4326  -4289  -4281  -4231  -4244  -4296  -4291  -4277  -4276  -4283  -4278  -4271  -4248  -4198  -4170  -4184  -4192  -4185  -4178  -4153  -4155  -4184  -4153  -4105  -4095  -4080  -4055  -4114  -4180  -4182  -4191  -4182  -4092  -3980  -3961  -3970  -3962  -3949  -3893  -3890  -3895  -3857  -3838  -3817  -3805  -3791  -3775  -3761  -3753  -3752  -3737  -3702  -3668  -3643  -3635  -3629  -3611  -3167  -2705  -2586  -2432  -2320  -2204  -2096  -2052  -1968  -1916  -1852  -1692  -1453  -1281  -1244  -1149  -1073  -1010   -916   -844   -793   -737   -706   -672   -613   -547   -483   -451   -443   -425   -399   -365   -337   -332   -335   -352   -374   -383   -396   -437   -453   -433   -483   -544   -537   -524   -519   -473   -405   -354   -291   -244   -232   -197   -150   -151   -215   -268   -223   -135    -66    -42    -23    213    152    148    305    274    239    103     67    183    443    274    274    274    274    274    274    305    374    517    394    457    802    674    732    640    457    390    408    427    610    587    671    763    942   1230   1017   1097   1085   1088   1215   1585   1363   1693   1855   1376   1779   2209   2239   1800   1505   1878   2657   1993   1653   1359   1184    960   1075   1199   1031   1029    962    981   1297   1566   1350   1322   1562   1975   1834   2127   2203   2285   2305   2357   2291   1849   1709   1772   1541   1342   1464   1445   1139   1242   1204   1070    953    867    857    835    793    782    779    691    602    568    597    965    837    783    794
-4538  -4531  -4526  -4520  -4512  -4505  -4503  -4523  -4569  -4598  -4583  -4555  -4550  -4569  -4587  -4580  -4568  -4563  -4553  -4539  -4515  -4497  -4496  -4486  -4333  -4128  -4040  -3972  -3858  -3651  -3517  -3579  -3861  -4226  -4394  -4427  -4427  -4422  -4417  -4396  -4394  -4438  -4482  -4488  -4489  -4498  -4519  -4532  -4513  -4466  -4428  -4383  -4316  -4303  -4325  -4313  -4289  -4280  -4289  -4304  -4302  -4277  -4230  -4197  -4207  -4197  -4181  -4167  -4140  -4131  -4125  -4100  -4074  -4096  -4117  -4080  -4120  -4212  -4253  -4274  -4259  -4131  -4036  -4044  -4016  -3954  -3923  -3908  -3846  -3812  -3816  -3819  -3842  -3838  -3798  -3768  -3746  -3733  -3716  -3672  -3644  -3638  -3622  -3628  -3631  -3571  -3322  -2841  -2319  -2135  -2210  -2192  -2156  -2168  -2111  -2063  -2002  -1757  -1440  -1259  -1187  -1093  -1016   -947   -867   -823   -790   -746   -710   -665   -610   -560   -531   -508   -478   -468   -470   -450   -421   -400   -391   -400   -412   -425   -453   -485   -511   -537   -561   -571   -572   -561   -543   -502   -442   -389   -318   -260   -235   -207   -166   -125   -148   -187   -166   -119    -77    -36     -9    -16     -1    -31    122    108     94     47    129    153    149    153    139    152    155    161    213    206    277    297    303    347    522    457    457    396    361    315    321    339    367    487    488    610   1097    684    852   1585   1695   1402   1270   1441   1499   1482   1183    763   1034   1415   1397    889   2219   1915   2855   2551   2044   1408   1400    924    921   1198   1160   1077   1268   1441   1528   1557   1518   1508   1491   1650   1765   1894   2173   2220   2251   2357   2239   2047   2056   1789   2180   1776   1627   1687   1533   1464   1397   1184   1027    954    911    876    839    793    794    735    683    644    563    641    792    686    630
-4547  -4537  -4532  -4528  -4520  -4514  -4514  -4532  -4568  -4596  -4601  -4595  -4591  -4592  -4589  -4582  -4576  -4572  -4566  -4558  -4548  -4532  -4512  -4490  -4459  -4437  -4417  -4371  -4347  -4318  -4222  -4210  -4247  -4322  -4402  -4406  -4419  -4423  -4417  -4404  -4401  -4427  -4453  -4456  -4459  -4462  -4463  -4464  -4467  -4458  -4427  -4369  -4337  -4344  -4342  -4323  -4300  -4295  -4305  -4325  -4320  -4294  -4250  -4214  -4209  -4186  -4167  -4148  -4129  -4132  -4116  -4087  -4069  -4080  -4081  -4015  -4006  -4126  -4204  -4210  -4210  -4095  -4006  -4010  -3959  -3859  -3828  -3844  -3785  -3760  -3802  -3825  -3830  -3821  -3791  -3766  -3733  -3703  -3675  -3646  -3646  -3647  -3612  -3583  -3562  -3539  -3528  -3122  -2304  -1978  -2139  -2228  -2256  -2355  -2514  -2495  -2245  -1837  -1384  -1137  -1053  -1013   -701   -637   -812   -763   -778   -749   -709   -677   -645   -601   -570   -543   -513   -503   -502   -479   -452   -437   -433   -436   -447   -466   -489   -512   -536   -561   -578   -583   -582   -576   -562   -530   -485   -443   -359   -270   -225   -199   -182   -162   -133   -105    -93    -85    -76    -58    -31    -21    -50    -44     -6     30     22     33     31     91    185     92    183    152    206    152    208    273    274    305    358    427    488    283    280    273    284    276    274    285    285    321    524    555    745    975    732    853   1707   1333    987    872    924    696    681    557    721    782    964   1022   1103   1682   1786   1868   2073   1395   1039   1043    748   1035   1290   1572   1418   1419   1619   1676   1581   1679   1584   1950   2166   2240   2322   2008   2008   2062   2112   2071   2074   2055   2143   2095   1688   1806   1605   1415   1276   1188   1084    999   1005    938    887    856    837    808    738    684    643    553    726    635    572
-4555  -4543  -4539  -4536  -4529  -4523  -4525  -4538  -4560  -4586  -4609  -4618  -4618  -4603  -4576  -4560  -4548  -4535  -4521  -4507  -4494  -4481  -4466  -4461  -4462  -4458  -4452  -4439  -4422  -4427  -4424  -4394  -4384  -4399  -4400  -4391  -4387  -4385  -4387  -4393  -4393  -4389  -4391  -4409  -4424  -4425  -4435  -4479  -4495  -4479  -4488  -4439  -4370  -4361  -4358  -4333  -4308  -4303  -4309  -4330  -4333  -4314  -4279  -4236  -4198  -4169  -4158  -4148  -4143  -4134  -4098  -4075  -4068  -4044  -3995  -3924  -3901  -3999  -4107  -4142  -4135  -4039  -3942  -3888  -3828  -3772  -3757  -3756  -3733  -3749  -3806  -3837  -3819  -3792  -3769  -3727  -3670  -3660  -3783  -3850  -3737  -3659  -3642  -3598  -3548  -3530  -3530  -3445  -3208  -2832  -2538  -2450  -2511  -2761  -2848  -2561  -2309  -2036  -1587  -1219  -1043   -976   -846   -643   -682   -830   -807   -748   -700   -681   -665   -633   -568   -516   -443   -318   -244   -270   -383   -457   -455   -459   -469   -478   -497   -526   -549   -565   -576   -580   -539   -538   -565   -541   -517   -477   -410   -340   -288   -243   -212   -173   -149   -142   -116    -94    -85    -73    -48    -28    -23    -20      8     13     20     22     18     24     43     45     50    305    160    230    296    335    518    549    549    530    309    256    249    234    235    241    241    243    247    265    488    914    416    488    549    549   1036    955   1341    873   1435   1219    848    799    428   1081   1007   1024   1230   1542   1712   2001   2362   1770   1729   1426    797    692    634    865    897    930   1321   1300   1248   1372   1890   1935   2118   1830   2283   2366   2352   2322   2443   2362   2605   2363   2438   2031   1865   1657   1582   1374   1296   1272   1101   1043    995    972    905    852    793    778    767    717    635    552    543    575    563
-4558  -4548  -4544  -4542  -4540  -4536  -4533  -4538  -4545  -4559  -4581  -4612  -4633  -4599  -4547  -4524  -4512  -4498  -4483  -4471  -4467  -4458  -4443  -4447  -4458  -4458  -4453  -4448  -4444  -4432  -4418  -4407  -4402  -4405  -4406  -4403  -4398  -4412  -4407  -4386  -4396  -4405  -4407  -4419  -4432  -4430  -4443  -4494  -4512  -4499  -4527  -4483  -4402  -4384  -4377  -4356  -4332  -4320  -4319  -4327  -4338  -4335  -4301  -4257  -4226  -4190  -4165  -4156  -4154  -4144  -4118  -4096  -4094  -4068  -3963  -3856  -3834  -3945  -4084  -4140  -4130  -4037  -3929  -3835  -3771  -3762  -3775  -3775  -3765  -3794  -3834  -3839  -3820  -3783  -3733  -3680  -3658  -3742  -4066  -4104  -3772  -3607  -3600  -3633  -3583  -3556  -3551  -3493  -3448  -3288  -3019  -2820  -2848  -2976  -2869  -2564  -2281  -2124  -1904  -1600  -1273   -998   -903   -877   -440   -431   -842   -800   -734   -687   -663   -640   -517   -352   -237   -170   -144   -139   -296   -456   -464   -482   -484   -444   -428   -473   -524   -552   -568   -578   -584   -575   -546   -508   -477   -460   -426   -378   -345   -315   -290   -268   -242   -207   -168   -130   -106   -102    -69    -32    -25    -24    -23    -11     11     14     11     11     17     61    336    200    195    221    271    366    366    396    427    350    266    252    254    227    215    217    214    207    207    195    176    239    529    366    427    343    369    427    792    488    656   1062    624    482    587    804    709    700   1475   1047   1084   1224   1189   1054    848    908    705    580    487    485    439    534    744    824    773   1055   1198   1613   1598   1334   1463   1634   1623   1701   1848   2196   2466   2354   2497   2239   2002   1850   1655   1325   1218   1253   1269   1090   1024    953    886    782    703    697    710    686    670    593    559    550    518
-4573  -4562  -4554  -4551  -4547  -4545  -4544  -4538  -4529  -4529  -4534  -4536  -4541  -4538  -4524  -4507  -4493  -4488  -4486  -4485  -4481  -4474  -4467  -4460  -4455  -4450  -4449  -4446  -4441  -4433  -4419  -4407  -4403  -4392  -4386  -4389  -4379  -4354  -4327  -4324  -4360  -4399  -4405  -4400  -4404  -4412  -4413  -4420  -4423  -4425  -4439  -4407  -4377  -4382  -4371  -4352  -4343  -4349  -4346  -4338  -4335  -4301  -4261  -4252  -4235  -4213  -4189  -4168  -4163  -4149  -4131  -4117  -4135  -4125  -3973  -3831  -3801  -3942  -4119  -4164  -4161  -4069  -3962  -3854  -3782  -3797  -3801  -3788  -3794  -3824  -3832  -3802  -3737  -3692  -3674  -3639  -3599  -3538  -3526  -3586  -3669  -3721  -3652  -3563  -3555  -3527  -3450  -3404  -3384  -3319  -3188  -3020  -3000  -2981  -2800  -2555  -2312  -2110  -1986  -1897  -1533  -1148  -1001   -930   -891   -846   -808   -794   -762   -715   -686   -592   -337   -165   -245   -253   -140   -107   -238   -335   -339   -354   -312   -276   -226   -213   -295   -384   -436   -461   -441   -392   -377   -429   -448   -416   -393   -374   -357   -333   -304   -281   -259   -241   -238   -211   -183   -198   -185   -131    -87    -48    -25    -31    -20      6      5      5      6    210    332    366    320    327    305    290    288    283    305    305    335    335    358    366    305    279    204    191    184    171    179    154    176    242    305    264    243    217    185    152    200    217    212    326    300    586    727    539    649    607    576    555    543    537    487    448    500    499    467    423    380    381    390    537    606    987   1005   1230   1031   1260   1759   2174   2223   2299   2255   2352   2146   2446   2426   2428   2268   1688   1623   1455   1251   1170   1244   1131    995    966    868    771    720    702    728    693    726    659    613    609    562
-4589  -4564  -4555  -4554  -4550  -4543  -4538  -4529  -4521  -4522  -4530  -4547  -4585  -4615  -4597  -4553  -4523  -4516  -4522  -4533  -4534  -4519  -4495  -4469  -4446  -4432  -4425  -4425  -4432  -4431  -4412  -4400  -4397  -4388  -4384  -4394  -4401  -4405  -4378  -4325  -4341  -4384  -4364  -4346  -4368  -4390  -4394  -4412  -4422  -4406  -4429  -4421  -4380  -4377  -4382  -4380  -4376  -4359  -4322  -4290  -4290  -4306  -4312  -4291  -4232  -4190  -4189  -4184  -4178  -4165  -4160  -4162  -4128  -4049  -3946  -3908  -3956  -4054  -4155  -4182  -4155  -4082  -3970  -3872  -3831  -3830  -3821  -3806  -3816  -3842  -3847  -3794  -3725  -3701  -3684  -3649  -3595  -3536  -3530  -3676  -4010  -4263  -3967  -3578  -3739  -3687  -3378  -3374  -3408  -3349  -3157  -3031  -3042  -2988  -2826  -2577  -2338  -2130  -2017  -1990  -1775  -1495  -1301  -1106   -902   -621   -619   -769   -757   -738   -724   -695   -448   -188   -137    -95    -62   -107   -260   -317   -161    -58    -57    -56    -84   -120   -143   -183   -240   -271   -255   -242   -264   -338   -349   -274   -268   -296   -274   -242   -232   -231   -224   -212   -214   -227   -235   -235   -227   -221   -216   -158    -87    -99    -77    -13     -1      3    410    144    323    832    549    396    457    305    281    295    244    305    561    458    317    478    488    305    366    305    331    314    183    244    122    183    183    201    164    147    129    113    115    142    152    196    243    282    343    394    423    442    441    416    393    390    387    399    417    423    402    391    348    329    333    358    384    511    849    902    968   1264   1384   2383   2806   2672   3070   2860   2708   2471   2249   1747   1564   1632   1358   1233   1279   1128   1005   1000   1027   1001    906   1030    864    875    998    857    945    810    664    676    650
-4593  -4562  -4555  -4554  -4547  -4539  -4530  -4521  -4515  -4516  -4524  -4542  -4572  -4598  -4602  -4575  -4535  -4512  -4512  -4533  -4556  -4562  -4543  -4504  -4455  -4404  -4368  -4361  -4381  -4391  -4386  -4380  -4370  -4362  -4367  -4396  -4432  -4449  -4407  -4330  -4312  -4340  -4336  -4323  -4351  -4373  -4378  -4394  -4390  -4361  -4348  -4331  -4326  -4363  -4390  -4377  -4368  -4372  -4333  -4289  -4266  -4264  -4268  -4247  -4202  -4193  -4197  -4187  -4190  -4205  -4234  -4245  -4153  -4010  -3926  -3982  -4107  -4175  -4216  -4204  -4145  -4079  -3952  -3858  -3861  -3861  -3839  -3813  -3822  -3842  -3824  -3757  -3707  -3701  -3676  -3637  -3590  -3555  -3568  -3619  -3705  -3786  -3666  -3495  -3594  -3664  -3459  -3426  -3517  -3429  -3155  -3047  -3084  -3011  -2879  -2588  -2310  -2071  -1894  -1642  -1470  -1554  -1561  -1401  -1132   -763   -674   -787   -772   -749   -736   -742   -646   -343    -96    -42    -42    -97   -309   -300    -63     -3     -4     -4    -35    -72    -74    -65    -75    -97   -103   -104   -109   -127   -123    -75    -60   -117   -145   -153   -171   -158   -165   -152   -140   -168   -164   -150   -153   -170   -197   -219   -216   -211   -142    -49    -60    -69    -25     74    335    328    170    427    465    518    721    544    228    211    655    493    397    487    244    244    194    128     59     72     85    114    183    107    153    143    125    102     88     96    100    114    141    164    181    336    363    305    322    343    349    327    322    324    333    335    358    365    359    338    327    295    311    349    409    452    542    701    819   1281   1529   2088   1769   2024   2706   2749   2646   2062   2236   1617   1494   1261   1002    888    787   1079   1201   1153   1165   1363   1138   1037   1148   1244   1279   1169   1289   1340   1001    833    975
-4592  -4557  -4543  -4546  -4541  -4532  -4525  -4518  -4515  -4517  -4523  -4538  -4557  -4572  -4577  -4556  -4520  -4494  -4478  -4486  -4516  -4538  -4530  -4496  -4443  -4371  -4316  -4304  -4315  -4328  -4331  -4316  -4292  -4287  -4311  -4338  -4411  -4443  -4376  -4309  -4273  -4274  -4277  -4279  -4301  -4332  -4369  -4397  -4396  -4375  -4364  -4302  -4178  -4180  -4283  -4330  -4347  -4355  -4328  -4292  -4272  -4258  -4230  -4197  -4182  -4192  -4207  -4214  -4231  -4252  -4275  -4285  -4230  -4118  -4055  -4114  -4212  -4246  -4221  -4171  -4094  -4003  -3906  -3858  -3865  -3861  -3843  -3826  -3828  -3828  -3800  -3756  -3726  -3715  -3680  -3624  -3578  -3562  -3579  -3580  -3555  -3533  -3524  -3485  -3437  -3477  -3406  -3302  -3415  -3621  -3477  -3157  -3108  -3151  -3054  -2700  -2262  -1881  -1505  -1206  -1283  -1651  -1824  -1684  -1438  -1055   -465   -126   -459   -772   -781   -825   -713   -398   -169   -130   -105    -50    -51    -41     -1     -1     -3     -4    -13    -28    -43    -62    -73    -43    -39    -55    -88    -66     -1    134    217     -8    -16    -20    -94   -175   -106    -18    -17    -23    -35    -68    -89   -100   -112   -117   -204   -301   -280   -246   -214   -135   -129   -146    -89    -30    167    384    152     77    394    244    338    152    170    381    132     99    107    103     82     69     37     45     55     72     88    104    160    183    177     70     74     83     87    101    135    256    267    210    243    261    265    282    282    281    271    276    282    297    313    299    288    264    271    327    354    355    426    493    586    867    769    927   1159   1444   1951   2274   1943   2100   1793   1347   1240   1386   1193    920    781    885    820   1091    988   1358   1400   1432   1393   1266   1191   1157   1260   1343   1516   1466   1086    989   1082
-4570  -4550  -4556  -4564  -4560  -4548  -4531  -4515  -4517  -4527  -4537  -4549  -4541  -4534  -4556  -4537  -4486  -4463  -4421  -4434  -4490  -4493  -4449  -4412  -4398  -4319  -4241  -4240  -4268  -4288  -4293  -4274  -4240  -4239  -4278  -4318  -4358  -4364  -4332  -4283  -4247  -4229  -4231  -4257  -4271  -4304  -4380  -4423  -4406  -4380  -4368  -4337  -4282  -4333  -4376  -4362  -4359  -4345  -4323  -4294  -4282  -4268  -4230  -4185  -4185  -4213  -4234  -4249  -4292  -4319  -4290  -4231  -4192  -4176  -4178  -4209  -4240  -4244  -4193  -4131  -4038  -3911  -3850  -3854  -3853  -3845  -3841  -3839  -3837  -3820  -3787  -3751  -3718  -3723  -3723  -3667  -3608  -3591  -3583  -3571  -3562  -3544  -3510  -3453  -3417  -3416  -3358  -3273  -3223  -3130  -3110  -3153  -3159  -3158  -3052  -2748  -2211  -1487   -961   -983  -1465  -1911  -1990  -1967  -1611  -1059   -849   -742   -351   -282   -841  -1205  -1237   -854   -320   -244   -343   -190    -25    -11     -1     -7     -3     -5     -1     -1     76    137      7    -14   -126   -143    -40   -176   -153    194    343    428    480     21      1     -1     -1    120     -4     -3    -12    -11     -3     -1     -6    -71   -344   -566   -462   -383   -453   -491   -473   -404   -286   -145    -73    -71    -25     24     -3     -1     -4     -9     -9    -44    -86    -79    -33     -1     44     24     94     34     42     55     66     67     57     55     65     55     64    305    105    100    127    149    155    201    395    269    223    227    235    230    240    238    239    245    279    315    279    262    319    456    526    523    420    636    634    651    772    860   1028   1156   1407   1366   1631   1677   1418   1810   1365    967    934    778    655    819    573   1092    784   1104   1126   1427   1512   1411   1439   1402   1257   1307   1348   1377   1257   1144   1133
-4557  -4567  -4590  -4586  -4584  -4585  -4576  -4555  -4555  -4561  -4563  -4567  -4533  -4482  -4457  -4467  -4482  -4483  -4402  -4390  -4448  -4437  -4375  -4344  -4371  -4276  -4173  -4196  -4252  -4286  -4320  -4363  -4363  -4327  -4296  -4364  -4453  -4449  -4417  -4378  -4357  -4335  -4322  -4338  -4332  -4334  -4418  -4490  -4465  -4450  -4469  -4391  -4368  -4418  -4396  -4387  -4378  -4393  -4371  -4316  -4295  -4268  -4237  -4207  -4218  -4249  -4259  -4291  -4328  -4323  -4283  -4191  -4172  -4231  -4241  -4242  -4247  -4232  -4175  -4100  -4007  -3881  -3794  -3795  -3824  -3830  -3831  -3833  -3833  -3817  -3793  -3782  -3769  -3751  -3730  -3704  -3668  -3645  -3600  -3549  -3539  -3523  -3503  -3470  -3437  -3413  -3371  -3296  -3210  -3187  -3269  -3300  -3239  -3095  -2866  -2619  -2335  -1812  -1527  -1697  -1869  -2022  -2064  -2023  -1664  -1259  -1327  -1549  -1279   -873  -1127  -1307  -1212  -1239   -902   -521   -368   -296   -373   -210     -4    -12    -87    -68    130    152    152    233     76     37      3    -26    -84     -5    152    296    152    152    183    229     -1     -1    -24     -4    -26    -93   -139   -129    -86    -70   -170   -337   -517   -633   -642   -609   -600   -630   -654   -667   -637   -575   -518   -457   -349   -241   -173   -121   -144   -193   -193   -189   -183   -148    -86    -16      1     -1     35     75     50     46     50     51     44     42     47     49     77    221    197    210    187    173    300    300    298    286    201    189    195    202    205    208    210    210    313    234    275    282    359    666    692    754    743    576    583    627    707    880    888    964   1082   1004   1032   1134   1198   1329   1383   1009    649    622    480    399    449    656    577    833    773   1028   1311   1462   1332   1440   1429   1314   1378   1358   1289   1141   1025
-4575  -4569  -4582  -4586  -4595  -4607  -4611  -4604  -4601  -4604  -4601  -4582  -4541  -4483  -4439  -4451  -4502  -4539  -4505  -4447  -4404  -4351  -4295  -4258  -4239  -4206  -4192  -4215  -4261  -4305  -4352  -4380  -4353  -4317  -4321  -4379  -4433  -4436  -4417  -4389  -4364  -4336  -4324  -4323  -4316  -4337  -4395  -4437  -4427  -4430  -4429  -4371  -4367  -4395  -4385  -4378  -4370  -4358  -4352  -4342  -4310  -4275  -4248  -4225  -4241  -4272  -4296  -4320  -4328  -4299  -4208  -4187  -4231  -4242  -4248  -4251  -4240  -4188  -4135  -4050  -3943  -3869  -3741  -3704  -3788  -3827  -3830  -3815  -3801  -3795  -3790  -3799  -3812  -3797  -3741  -3684  -3656  -3628  -3583  -3551  -3534  -3507  -3481  -3462  -3448  -3426  -3380  -3314  -3247  -3212  -3281  -3319  -3206  -2982  -2753  -2539  -2279  -2171  -2108  -2000  -2042  -2175  -2266  -2251  -2159  -2000  -1869  -1858  -1757  -1447  -1129   -958   -971  -1024  -1025   -902   -561   -288   -193   -252   -310   -257   -209   -114     -2    323    362    361    229    152     76    -11   -110   -149    -78    -14     -1     -1     -6    -18   -134    -27   -188    -29   -239   -372   -401   -374   -347   -384   -526   -643   -699   -714   -719   -729   -723   -734   -757   -769   -800   -832   -830   -785   -728   -675   -615   -541   -463   -404   -366   -337   -300   -244   -176   -103    -44    -11     30     31     73     43     36     34     32     33     40     43     46     72    128    200    200    259    300    400    300    400    329    197    168    177    180    179    294    265    234    240    278    330    400    513    511    577    597    590    679    739    691    738    787    821    913    861    721    712    697    777    617    606    640    580    390    320    290    312    398    563    579    859    822   1175   1110   1496   1399   1436   1250   1224   1268   1069    924
-4609  -4590  -4585  -4586  -4599  -4616  -4622  -4614  -4608  -4610  -4600  -4555  -4449  -4363  -4382  -4444  -4507  -4608  -4629  -4525  -4417  -4340  -4294  -4247  -4177  -4183  -4248  -4261  -4283  -4333  -4382  -4400  -4362  -4314  -4318  -4377  -4428  -4433  -4413  -4389  -4370  -4336  -4323  -4325  -4303  -4330  -4399  -4430  -4423  -4433  -4440  -4388  -4364  -4388  -4393  -4386  -4377  -4365  -4349  -4326  -4308  -4291  -4254  -4228  -4250  -4282  -4307  -4325  -4328  -4291  -4208  -4217  -4258  -4240  -4241  -4246  -4216  -4156  -4105  -4044  -3980  -3939  -3901  -3875  -3866  -3860  -3849  -3833  -3810  -3793  -3784  -3785  -3787  -3769  -3720  -3654  -3608  -3589  -3567  -3551  -3532  -3503  -3485  -3475  -3457  -3431  -3392  -3325  -3272  -3217  -3216  -3291  -3281  -3041  -2674  -2492  -2417  -2356  -2298  -2219  -2240  -2325  -2372  -2343  -2273  -2138  -2000  -1977  -1991  -1863  -1685  -1582  -1483  -1223   -887   -819   -820   -646   -391   -262   -258   -240   -226   -213   -183    -76    229    103      7    -19    -64   -133   -145   -119   -114    -71    -24    -58   -124   -413   -664   -628   -546   -551   -645   -763   -699   -559   -548   -620   -731   -778   -766   -746   -752   -766   -782   -802   -801   -797   -816   -843   -863   -858   -828   -785   -743   -691   -602   -527   -490   -460   -412   -348   -274   -197   -118    -40     30     22     25     48     26     24     23     29     28     32     36     53     78     85     98    103    136    200    326    431    289    271    174    152    186    200    331    222    240    268    323    441    514    455    476    477    479    498    478    520    600    708    783    767    740    686    670    572    542    473    417    373    368    344    259    230    222    228    257    342    389    459    562    794    954    991   1276   1486   1235   1019    981    960    961
-4629  -4617  -4605  -4600  -4607  -4618  -4618  -4610  -4612  -4618  -4606  -4541  -4288  -4122  -4269  -4501  -4625  -4688  -4684  -4559  -4433  -4380  -4411  -4474  -4607  -4632  -4521  -4380  -4309  -4366  -4408  -4398  -4339  -4271  -4272  -4396  -4489  -4467  -4417  -4386  -4393  -4355  -4346  -4361  -4308  -4327  -4402  -4436  -4441  -4451  -4461  -4433  -4408  -4405  -4388  -4373  -4363  -4353  -4327  -4329  -4356  -4339  -4284  -4245  -4241  -4252  -4281  -4297  -4295  -4294  -4282  -4270  -4279  -4284  -4268  -4223  -4166  -4134  -4095  -4031  -3988  -3975  -3959  -3927  -3900  -3882  -3855  -3828  -3814  -3806  -3799  -3792  -3783  -3755  -3707  -3650  -3606  -3584  -3569  -3551  -3530  -3515  -3502  -3489  -3474  -3430  -3356  -3279  -3237  -3244  -3250  -3283  -3276  -3078  -2762  -2510  -2424  -2467  -2449  -2441  -2495  -2494  -2463  -2403  -2347  -2277  -2175  -2067  -2025  -1999  -1957  -1944  -1931  -1775  -1561  -1434  -1139   -900   -636   -416   -449   -421   -341   -295   -373   -305    -32     -1    -45    -47    -42    -98   -100   -164   -260   -264   -224   -297   -526   -988  -1272  -1247  -1195  -1078  -1020  -1007   -913   -734   -619   -698   -805   -798   -789   -782   -781   -788   -798   -820   -847   -858   -861   -869   -877   -867   -860   -852   -848   -800   -678   -595   -582   -564   -513   -450   -379   -303   -215   -113    -29     21     12     12     26     17     17     20     22     21     20     22     48     60     90     76     91    100    159    159    200    215    155    180    195    194    207    364    303    362    440    478    526    489    451    456    600    518    440    439    520    600    717    729    742   1119   1135    951   1058    718   1233    492    606    301    225    184    163    166    267    347    264    290    295    393    482    780    842   1056   1474   1306   1124   1231   1198
-4631  -4631  -4629  -4623  -4619  -4618  -4616  -4615  -4603  -4598  -4612  -4618  -4161  -3836  -4130  -4427  -4411  -4305  -4407  -4469  -4381  -4353  -4460  -4554  -4631  -4656  -4645  -4418  -4253  -4369  -4417  -4395  -4312  -4208  -4222  -4375  -4522  -4547  -4502  -4449  -4463  -4642  -4705  -4483  -4248  -4146  -4314  -4477  -4478  -4477  -4478  -4464  -4439  -4411  -4369  -4345  -4342  -4341  -4337  -4348  -4362  -4339  -4283  -4242  -4224  -4217  -4237  -4245  -4239  -4259  -4288  -4280  -4283  -4297  -4275  -4208  -4143  -4107  -4056  -4007  -3987  -4001  -4003  -3955  -3906  -3870  -3832  -3815  -3815  -3811  -3806  -3800  -3792  -3761  -3726  -3672  -3608  -3582  -3572  -3555  -3540  -3540  -3533  -3520  -3503  -3461  -3380  -3306  -3284  -3333  -3353  -3358  -3370  -3174  -2872  -2633  -2470  -2464  -2538  -2610  -2678  -2679  -2608  -2500  -2412  -2365  -2318  -2245  -2168  -2103  -2042  -1985  -1959  -1924  -1853  -1730  -1468  -1137   -902   -837   -795   -729   -646   -523   -465   -443   -324   -192   -100    -39    -54    -80    -95   -114   -159   -333   -390   -476   -576   -372   -661  -1274  -1489  -1405  -1295  -1268  -1213  -1123  -1041  -1074   -973   -779   -773   -799   -799   -802   -813   -839   -872   -887   -885   -889   -895   -886   -890   -892   -888   -891   -875   -794   -675   -612   -601   -567   -496   -415   -321   -197    -66     -2     19      7      8     19     15     13     15     13     10     17     26     38     48     59     69     90    111    200    236    414    875    400    298    276    235    363    421    435    440    480    536    519    457    453    484    637    440    439    439    471    578    811    759   1090   1074   1307   1312   1843   1822   1564   1664   1298    403    173    134    117    106    198    130    221    203    259    363    428    729   1055    971   1406   1252   1115   1136
-4631  -4631  -4629  -4628  -4627  -4619  -4622  -4635  -4530  -4434  -4468  -4515  -4403  -4258  -4303  -4433  -4472  -4432  -4474  -4525  -4453  -4379  -4424  -4510  -4562  -4548  -4385  -4192  -4150  -4183  -4225  -4276  -4313  -4372  -4523  -4650  -4672  -4659  -4621  -4612  -4664  -4730  -4679  -4448  -4141  -3927  -4139  -4410  -4428  -4442  -4455  -4448  -4412  -4369  -4324  -4305  -4315  -4336  -4359  -4353  -4321  -4294  -4263  -4271  -4275  -4248  -4233  -4191  -4139  -4108  -4176  -4231  -4226  -4247  -4246  -4193  -4141  -4120  -4086  -4044  -4004  -3991  -3984  -3956  -3905  -3848  -3817  -3817  -3818  -3809  -3798  -3788  -3768  -3742  -3715  -3661  -3613  -3594  -3578  -3569  -3556  -3550  -3529  -3506  -3493  -3475  -3446  -3418  -3402  -3397  -3389  -3394  -3302  -3051  -2838  -2739  -2662  -2588  -2633  -2738  -2783  -2773  -2729  -2576  -2379  -2295  -2272  -2244  -2158  -2092  -2048  -1969  -1928  -1895  -1839  -1768  -1675  -1494  -1184   -866   -666   -615   -597   -537   -501   -413   -370   -381   -268   -155   -113    -98   -101   -118   -173   -328   -652  -1019  -1386  -1639  -1707  -1773  -1818  -1556  -1420  -1502  -1443  -1404  -1310  -1225  -1023   -722   -633   -712   -796   -831   -837   -844   -866   -889   -896   -896   -892   -879   -864   -861   -866   -885   -898   -873   -840   -781   -730   -698   -614   -514   -415   -274   -105    -11     24     17      9      8     30     11      8      8      7     15     23     33     43     52     61    100    138    200    367    463    706    800    554    400    291    400    442    462    554    600    602    533    486    439    477    436    468    625    602    445    447    668    928    883   1191   1222   1721   1965   2320   3172   2618   1754   1221    147    118     98     93     74     53     89    109    116    318    291    293    496    863   1072   1167   1155   1065
-4628  -4631  -4631  -4634  -4637  -4628  -4613  -4578  -4480  -4398  -4413  -4493  -4545  -4491  -4433  -4539  -4673  -4658  -4629  -4565  -4401  -4300  -4334  -4419  -4451  -4361  -4243  -4196  -4169  -4138  -4123  -4180  -4289  -4407  -4567  -4647  -4646  -4659  -4666  -4690  -4727  -4723  -4617  -4408  -4197  -4087  -4158  -4274  -4300  -4326  -4359  -4321  -4264  -4263  -4256  -4249  -4271  -4308  -4333  -4324  -4299  -4274  -4256  -4248  -4235  -4222  -4207  -4169  -4138  -4151  -4184  -4210  -4228  -4236  -4221  -4160  -4108  -4100  -4073  -4032  -3998  -3932  -3890  -3916  -3931  -3868  -3815  -3821  -3829  -3765  -3729  -3770  -3740  -3696  -3675  -3616  -3573  -3581  -3591  -3579  -3552  -3532  -3520  -3512  -3498  -3484  -3463  -3446  -3453  -3462  -3445  -3392  -3275  -3050  -2867  -2831  -2843  -2848  -2890  -2961  -2926  -2785  -2692  -2460  -2143  -2017  -1974  -1944  -1858  -1776  -1756  -1807  -1835  -1774  -1722  -1670  -1603  -1453  -1274  -1036   -807   -760   -642   -494   -450   -333   -313   -294   -213   -205   -153   -129   -143   -147   -163   -214   -364   -772  -1241  -1540  -1708  -1793  -1842  -1594  -1530  -1671  -1602  -1559  -1457  -1369  -1186   -848   -580   -501   -612   -762   -827   -834   -863   -909   -936   -931   -908   -895   -886   -872   -869   -882   -897   -890   -880   -877   -826   -766   -694   -594   -498   -348   -126    119     29      8      6      4     11     18      8      5      5      8     18     27     33     40     59     78    200    199    241    400    568    800   1008    691    436    301    400    594    655    670    624    520    503    437    434    478    720    620    571    457    459    472    523    598    678   1242   1637   1770   2166   2404   2296   1880    849    233    381    136     91     94    102     60     46     26     38    189    132    150    534    809    838    975   1049
-4619  -4627  -4641  -4654  -4644  -4621  -4589  -4547  -4487  -4436  -4434  -4474  -4510  -4499  -4491  -4603  -4717  -4646  -4486  -4392  -4305  -4225  -4296  -4430  -4506  -4538  -4576  -4504  -4299  -4192  -4186  -4215  -4268  -4321  -4370  -4464  -4560  -4585  -4584  -4593  -4621  -4625  -4547  -4404  -4278  -4213  -4233  -4275  -4225  -4236  -4300  -4238  -4170  -4185  -4193  -4185  -4232  -4305  -4339  -4358  -4322  -4269  -4303  -4301  -4256  -4228  -4192  -4152  -4164  -4222  -4214  -4211  -4239  -4209  -4138  -4077  -4034  -4004  -4010  -4011  -3951  -3763  -3640  -3813  -3957  -3702  -3639  -3819  -3819  -3597  -3523  -3702  -3707  -3691  -3685  -3619  -3575  -3592  -3607  -3597  -3575  -3560  -3545  -3531  -3512  -3499  -3489  -3472  -3478  -3496  -3469  -3431  -3393  -3190  -2953  -2946  -3059  -3135  -3158  -3143  -3039  -2842  -2606  -2163  -1752  -1606  -1530  -1463  -1319  -1059  -1109  -1445  -1544  -1488  -1439  -1392  -1355  -1298  -1202  -1059   -929   -893   -887   -813   -635   -410   -360   -325   -206   -194   -169   -140   -151   -147   -140   -146   -304   -625   -993  -1351  -1620  -1782  -1846  -1825  -1820  -1848  -1849  -1804  -1651  -1489  -1304   -974   -587   -365   -339   -456   -594   -649   -739   -866   -940   -941   -916   -903   -903   -896   -892   -899   -904   -901   -891   -859   -803   -773   -719   -674   -624   -476   -193    321    157      8      1     -1     -1     -1     -1      2      4      8     12     17     23     31     42     44     71    183    384    301    400    619    620    878    686    388    381    613    604    641    616    506    447    436    438    462    513    627    472    460    477    493    512    540    661    940   1161   1815   1663   2326   2273   1550    821    306    473    409    315     61     51     67     44     22      6      4     30     71    208    551    811    836    811
-4550  -4567  -4631  -4655  -4615  -4565  -4516  -4475  -4442  -4429  -4439  -4464  -4493  -4518  -4557  -4628  -4669  -4615  -4506  -4448  -4407  -4345  -4447  -4561  -4565  -4534  -4368  -4114  -3993  -4065  -4157  -4215  -4244  -4251  -4223  -4302  -4467  -4497  -4435  -4389  -4416  -4479  -4490  -4432  -4362  -4310  -4306  -4286  -4185  -4171  -4221  -4199  -4183  -4211  -4224  -4221  -4248  -4268  -4262  -4293  -4320  -4313  -4327  -4325  -4284  -4105  -3883  -3887  -3900  -3911  -4086  -4226  -4234  -4203  -4180  -4150  -4075  -3731  -3692  -3966  -3972  -3898  -3761  -3685  -3715  -3787  -3813  -3816  -3869  -3807  -3721  -3620  -3561  -3658  -3688  -3635  -3673  -3724  -3688  -3637  -3603  -3579  -3563  -3551  -3538  -3530  -3518  -3496  -3509  -3527  -3499  -3500  -3496  -3338  -3125  -3088  -3186  -3270  -3280  -3211  -3150  -3059  -2829  -2353  -1709  -1320  -1229  -1182  -1087   -948   -991  -1192  -1305  -1312  -1239  -1158  -1145  -1163  -1146  -1092  -1036  -1003   -976   -960   -786   -380   -445   -700   -610   -348   -124   -118   -124   -130   -133   -136   -253   -436   -702  -1112  -1495  -1746  -1854  -1888  -1905  -1925  -1926  -1867  -1712  -1508  -1325  -1035   -587   -321   -287   -270   -248   -322   -508   -718   -863   -894   -898   -905   -907   -901   -898   -901   -902   -903   -891   -823   -729   -647   -614   -680   -746   -764   -606   -339   -119      2     -2     -1     -2     -4     -7     -5      4     -1      5     11     15     13     20     20     31     84    228    442    400    500    986   1505   1325    853    647    472    412    577    487    487    493    500    441    453    478    484    457    478    475    654    613    589    739    811    838   1309   1482   1551   1845   1972    984    801    488    690    557    488     78     55     28     18      1     -6     -2     23    138    264    396    695    716
-4579  -4592  -4670  -4666  -4558  -4473  -4413  -4392  -4385  -4401  -4425  -4450  -4497  -4536  -4563  -4606  -4642  -4641  -4611  -4629  -4729  -4718  -4644  -4598  -4501  -4325  -4021  -3913  -4203  -4342  -4236  -4162  -4148  -4228  -4234  -4306  -4454  -4462  -4365  -4255  -4257  -4367  -4477  -4453  -4393  -4353  -4308  -4267  -4142  -4122  -4176  -4176  -4177  -4224  -4258  -4254  -4289  -4294  -4304  -4303  -4319  -4379  -4410  -4391  -4370  -3968  -3425  -3619  -3697  -3596  -4020  -4323  -4294  -4243  -4226  -4198  -4100  -3310  -3324  -4011  -3951  -3899  -3821  -3794  -3911  -3795  -3528  -3662  -3885  -3871  -3814  -3549  -3423  -3690  -3771  -3678  -3661  -3691  -3675  -3636  -3607  -3583  -3573  -3564  -3548  -3567  -3572  -3533  -3552  -3566  -3542  -3540  -3521  -3405  -3232  -3195  -3259  -3308  -3311  -3276  -3227  -3253  -3323  -3064  -2685  -1904  -1252  -1256  -1226  -1174  -1148  -1176  -1169  -1125  -1073  -1007  -1011  -1078  -1121  -1124  -1100  -1072  -1035  -1000   -985   -850   -796   -842   -753   -508   -220   -118   -125   -135   -137   -142   -223   -383   -622   -987  -1406  -1688  -1810  -1891  -1914  -1915  -1921  -1871  -1741  -1547  -1313  -1046   -759   -528   -384   -285   -226   -219   -247   -378   -591   -782   -875   -880   -884   -890   -894   -896   -895   -895   -848   -744   -659   -592   -602   -704   -780   -820   -839   -745   -524   -322   -185    -76    -18    -10    -22    -27    -14     -1     -1      5     10     10     13     18     33     77    151    223    300    400    520    628    600    798   1113    692    413    428    479    440    425    437    434    435    470    460    487    478    509    538    826    867    768    855   1301   1360   1667   1372   1451   1604   2061   1120    630   1039    806    306    254    365      8     10     15     -9    -14     -6     20    160    330    440    522
-4569  -4593  -4604  -4545  -4504  -4444  -4378  -4354  -4342  -4370  -4406  -4426  -4457  -4482  -4480  -4504  -4582  -4636  -4631  -4620  -4612  -4559  -4475  -4437  -4435  -4331  -4179  -4205  -4364  -4387  -4216  -3785  -3505  -3881  -4319  -4385  -4210  -4215  -4361  -4381  -4350  -4349  -4378  -4294  -4237  -4276  -4290  -4274  -4240  -4207  -4199  -4193  -4195  -4242  -4288  -4286  -4296  -4288  -4260  -4265  -4277  -4294  -4344  -4328  -4283  -3949  -3487  -3673  -4009  -4066  -4174  -4245  -4205  -4145  -4127  -4112  -4045  -3972  -3926  -3894  -3862  -3846  -3872  -3912  -3928  -3929  -3929  -3914  -3907  -3898  -3853  -3808  -3778  -3770  -3770  -3724  -3697  -3706  -3668  -3612  -3585  -3576  -3575  -3571  -3569  -3559  -3545  -3547  -3531  -3499  -3518  -3537  -3501  -3390  -3287  -3284  -3310  -3316  -3306  -3269  -3253  -3331  -3354  -3205  -2894  -2313  -1742  -1489  -1429  -1408  -1311  -1141  -1042  -1063  -1082  -1066  -1075  -1127  -1181  -1187  -1144  -1081  -1017   -965   -950   -954   -951   -933   -846   -675   -371   -140   -136   -156   -156   -172   -238   -382   -696  -1036  -1289  -1523  -1706  -1837  -1902  -1912  -1905  -1885  -1800  -1636  -1448  -1242  -1012   -766   -533   -372   -273   -216   -214   -348   -566   -678   -690   -707   -752   -836   -898   -906   -901   -894   -876   -788   -687   -637   -711   -830   -854   -859   -848   -822   -723   -533   -319   -124    -32    -20    -24    -35    -39    -25     -5      5     15      1     13     40     81     64    100    168    283    307    373    500    800    868    975    830    569    374    385    500    540    509    485    444    436    460    700    650    720    598    777    834   1172    906   1013   1348   1468   1467   1350   1544   1792   1643    976   1100   1184    750    378    693     93    164     -7    -15    -27    -14    -21     39    217    399    430
-4543  -4594  -4689  -4670  -4572  -4501  -4457  -4445  -4426  -4411  -4418  -4420  -4399  -4398  -4400  -4400  -4511  -4599  -4597  -4551  -4491  -4422  -4334  -4331  -4380  -4368  -4420  -4426  -4416  -4468  -4385  -4233  -4096  -4147  -4306  -4357  -4303  -4342  -4444  -4414  -4344  -4360  -4367  -4298  -4239  -4240  -4272  -4306  -4328  -4299  -4245  -4237  -4267  -4306  -4324  -4303  -4287  -4277  -4267  -4279  -4288  -4312  -4347  -4314  -4234  -4058  -3889  -3965  -4150  -4217  -4211  -4208  -4186  -4155  -4134  -4100  -4027  -3953  -3915  -3884  -3859  -3862  -3890  -3912  -3943  -3988  -3979  -3950  -3967  -3959  -3893  -3873  -3844  -3796  -3818  -3814  -3783  -3762  -3693  -3613  -3582  -3580  -3576  -3578  -3584  -3578  -3565  -3577  -3561  -3520  -3525  -3535  -3520  -3471  -3405  -3366  -3352  -3337  -3314  -3251  -3210  -3348  -3487  -3476  -3245  -2481  -1719  -1486  -1432  -1459  -1419  -1183  -1004  -1027  -1112  -1135  -1153  -1198  -1256  -1270  -1190  -1075   -980   -924   -913   -930   -944   -949   -910   -723   -419   -232   -241   -273   -270   -213   -182   -392   -618   -743  -1095  -1414  -1606  -1792  -1857  -1883  -1900  -1902  -1794  -1640  -1569  -1456  -1245   -952   -640   -445   -355   -278   -184   -108   -242   -441   -472   -490   -547   -696   -833   -851   -855   -855   -852   -843   -760   -762   -831   -853   -888   -891   -885   -837   -729   -589   -364   -147    -79    -74    -72    -86   -103    -93    -57    -29    -12     38    108    200    128    146    125    134    175    248    240    464    500    752    823    610    975    908    443    400    498    538    600    440    430    445    557    590    640    763    839    933   1090   1199   1247   1113   1414   1795   1643   1434   1629   1698   1215   1209   1313   1009   1010    825    393    113    -14    -26     -7    -18    -28    -25     79    183    284
-4512  -4568  -4649  -4643  -4565  -4504  -4494  -4517  -4518  -4499  -4466  -4419  -4394  -4407  -4454  -4457  -4490  -4547  -4560  -4542  -4508  -4414  -4211  -4186  -4291  -4310  -4369  -4371  -4396  -4447  -4394  -4361  -4263  -4109  -4137  -4237  -4246  -4318  -4419  -4416  -4346  -4339  -4372  -4319  -4249  -4244  -4272  -4314  -4345  -4323  -4265  -4249  -4294  -4324  -4316  -4290  -4264  -4258  -4264  -4287  -4298  -4316  -4313  -4270  -4232  -4158  -4120  -4149  -4202  -4215  -4212  -4211  -4171  -4157  -4125  -4042  -3975  -3951  -3914  -3872  -3913  -3976  -4003  -3967  -4004  -4092  -4064  -4041  -4016  -3951  -3913  -3881  -3836  -3817  -3811  -3781  -3760  -3762  -3676  -3586  -3579  -3583  -3585  -3592  -3588  -3580  -3574  -3594  -3585  -3549  -3553  -3552  -3525  -3499  -3467  -3434  -3423  -3404  -3365  -3190  -2995  -3176  -3468  -3537  -3385  -2863  -2189  -1727  -1447  -1354  -1278  -1122  -1054  -1070  -1133  -1142  -1134  -1154  -1220  -1278  -1203  -1060   -956   -919   -924   -939   -951   -957   -956   -796   -400   -240   -406   -468   -433   -300    -97   -175   -254   -159   -474   -804  -1171  -1641  -1770  -1816  -1856  -1881  -1797  -1697  -1692  -1640  -1476  -1146   -701   -448   -418   -402   -321   -235   -205   -307   -515   -632   -610   -601   -650   -693   -738   -772   -805   -809   -714   -678   -805   -888   -889   -894   -899   -871   -786   -638   -466   -310   -232   -215   -193   -196   -213   -209   -175   -136   -108    -87    -40    157    200    200    100    156    200    227    181    339    300    681    852    810    853    837    666    635    356    390    400    397    408    420    451    499    589    656    725    867   1115   1074   1678   1219   1272   1325   1351   1536   1465   1620   1284   1242   1219   1076   1420   1361    832    352     31    -34     -5    -24    -34    -38    -26      5     55
-4556  -4614  -4574  -4504  -4475  -4436  -4448  -4473  -4477  -4454  -4408  -4365  -4345  -4362  -4405  -4435  -4453  -4479  -4521  -4530  -4436  -4196  -4068  -4145  -4219  -4270  -4358  -4401  -4437  -4365  -4213  -4210  -4189  -4094  -4050  -4063  -4098  -4247  -4420  -4427  -4280  -4265  -4357  -4308  -4221  -4209  -4251  -4293  -4313  -4294  -4255  -4248  -4284  -4313  -4314  -4287  -4252  -4253  -4267  -4281  -4301  -4329  -4304  -4230  -4172  -4134  -4134  -4170  -4225  -4235  -4210  -4194  -4172  -4159  -4106  -4011  -3959  -3954  -3955  -3987  -4089  -4188  -4190  -4166  -4172  -4169  -4148  -4110  -4035  -3942  -3894  -3886  -3870  -3841  -3808  -3755  -3710  -3684  -3641  -3639  -3650  -3638  -3665  -3644  -3598  -3589  -3581  -3591  -3581  -3573  -3571  -3542  -3510  -3496  -3483  -3466  -3443  -3400  -3320  -3179  -3098  -3312  -3557  -3574  -3547  -3328  -2784  -2195  -1746  -1524  -1527  -1324  -1123  -1150  -1160  -1154  -1118  -1117  -1171  -1234  -1168  -1011   -917   -921   -970   -995   -996   -979   -955   -919   -722   -535   -546   -501   -392   -247    -73    -15    -17     -7   -172   -440   -804  -1311  -1647  -1752  -1780  -1819  -1832  -1809  -1779  -1732  -1682  -1412   -929   -403   -174   -265   -266   -199   -168   -292   -532   -664   -583   -496   -497   -537   -608   -654   -681   -658   -602   -599   -746   -881   -890   -889   -894   -890   -864   -827   -763   -584   -450   -413   -338   -309   -338   -347   -311   -275   -281   -326   -352   -146     71    200     69    142    129    183    166    144    270    693    788    617    438    569    661    621    548    331    340    359    388    400    443    490    562    682    716    776    944   1053   1191   1105   1186   1176   1197   1376   1435   1416   1602   2006   1920   1758   1324   1822   1356    622    699    174     12    -17    -38    -46    -46    -32     -2
